-0.0620046    1.02588  -0.257733
-0.327181  0.715804 -0.526476
 0.123715  0.800957 -0.489505
 -0.71467  -1.16768 -0.580482
-0.253999   1.48983  0.324071
 -0.306043 -0.0571411    0.64248
-0.103531 -0.328665 -0.739225
-0.400493 -0.830057  0.229422
 -0.36789  -1.32973 -0.656504
-0.0483306   -1.30043    0.63548
-0.152113  0.706707  0.627764
 0.434846 -0.405434  0.540754
0.641339 0.176368 0.206566
-0.852229 0.0455274 -0.272164
 0.278517  -1.35863 -0.287616
-0.256801  -1.32002    0.1794
-0.192021  0.132239  0.686487
-0.575588  -1.30042 -0.112703
 -0.56168  -1.25836 0.0949056
-0.496803  0.989179  0.540757
-0.0679897   -1.38313   0.640948
0.452437  -1.4305 0.202328
 0.433117  0.053958 -0.322803
 0.681187  -1.23114 -0.115792
  -0.26081    -1.3107 -0.0604122
 -0.974385 -0.0332589  -0.131763
 0.115196  0.927874 -0.249427
-0.370669  -1.39003 -0.344998
-0.0862182    -1.3858  -0.468504
 0.464092 0.0965035  0.512903
-0.819783 -0.365419 -0.405237
  0.696399   -1.40428 -0.0694892
-0.689673   0.56515  0.278071
-0.471133  -1.36507 -0.691366
0.577927 -1.11983 0.181204
 -0.45933   1.35867 0.0724249
0.292719 0.179464 0.537387
-0.12567 0.103777 0.703705
 0.256152   0.73837 -0.255676
-0.658409  -1.06536 -0.280545
 0.481661  -1.40111 -0.290517
 0.310786 -0.984551 -0.299162
-0.158791  -1.30258 -0.366682
-0.234105  0.734993 -0.563799
0.231066 0.850276 0.441089
 0.262843  0.255411 -0.709329
   0.562981   -0.113668 -0.00373469
 0.753884 -0.218949  0.262725
-0.178685  -1.18795  0.470793
 0.407564 -0.429603 -0.605026
-0.00768199     1.17813  -0.0312042
 0.359567  -0.40973 -0.640473
0.319995 0.271842 0.469724
-0.253785  -1.40565  -0.20751
 -0.301334   -1.31366 -0.0891368
  0.341348    1.02757 -0.0120787
-0.366541   1.45527  0.155357
 -0.788494   0.920026 -0.0972015
0.477313 0.028915 0.527077
-0.117088  -1.42456 -0.182222
 -0.459819   -1.38886 -0.0278088
-0.145152  -1.43047  0.391664
 0.124597  0.943454 -0.420004
-0.808744  -0.51239 0.0455218
-0.561388  0.572724 -0.287775
 -0.604323    1.14787 -0.0322252
-0.606245 0.0076663 -0.436703
-0.783913   -1.4305  -0.24446
  -0.758263 -0.00382483    0.304383
0.511795  -1.4305  0.24652
 0.199614  -1.41597 -0.276921
 -0.627238    -1.4305 -0.0353832
 -0.61335  -1.00091 -0.610903
-0.202626 -0.342762 -0.695903
-0.0167707 -0.0982581   0.650585
-0.617568 -0.343182 -0.404655
-0.658356   -1.3015 -0.550143
-0.474711  -1.33523 -0.648809
-0.520989  -1.30673 -0.148064
0.0961478   -1.4305  0.368134
 0.342274  0.988622 0.0595281
-0.0954862   -1.43048   0.368731
 0.381343 -0.739466  -0.50947
 0.041955 -0.753302 -0.671429
 0.428425 -0.658332  0.329698
-0.241718  -1.19447  0.201244
-0.0631361  -0.507557   0.612127
 -0.699405 -0.0443992   0.365799
 0.439397 -0.660402 -0.490812
-0.518394  0.278834  0.386183
-0.704485  -1.41486  -0.52513
-0.36291  0.12321 0.622883
0.0546652  -1.31303 -0.240017
0.315156  0.42116 0.168634
-0.262463  0.372031  0.569412
-0.437261  -1.32422 -0.656274
-0.271603    1.3125  0.557462
  -0.640469   -0.624451 0.000450962
 0.791447 -0.174693  0.433414
 -0.818711   0.511103 -0.0424095
-0.170813   1.15052 -0.188728
-0.616168  0.246797 -0.363119
-0.534758  -1.42999  -0.12768
 0.094326 -0.924007  0.494501
-0.0967627    1.16926  -0.135953
0.0984793  0.856251 -0.494001
-0.222225  -1.36285 -0.642665
0.0874595   1.14395 -0.062687
0.018531  1.08641 -0.15229
-0.658281  -0.48682 -0.437587
-0.912544 -0.276852 -0.364208
0.305574 -1.18513 0.613168
0.184558 0.629997 0.416049
 0.220021  0.398366 -0.642955
 -0.483479    1.24795 -0.0414633
-0.308407  -1.41424 -0.638261
0.0747408  -1.43049 -0.358032
-0.328912  0.249746  0.491778
-0.763588  -1.18255 -0.337534
-0.53048  1.41912 0.485896
-0.20038  1.32129 0.512598
0.0410526  -1.43006 -0.491647
-0.360747  0.256602  0.464529
0.0440623  0.308999  0.515622
0.0948757 -0.324725   0.66279
0.00382714     1.2364   0.189746
0.0448815   1.16291  0.348314
 0.295635 0.0273419 -0.552222
-0.695592  -1.39457 0.0277631
0.272381 -1.21503 -0.23875
 -0.779854 0.00350717    0.23131
0.354824 -1.19648 0.589149
 -0.829679  -0.549438 -0.0328302
 0.027997  0.922334 -0.289679
-0.866954  -1.35422 -0.402504
 0.585378 -0.278827 -0.166619
 0.331762  0.887815 -0.083186
-0.526971 -0.678573  0.259373
0.0604552  0.922907 -0.237497
 -0.29875 -0.560744  0.430473
0.397442 0.428252 0.193834
0.392354 -1.43049 0.366407
-0.613032 -0.504384 0.0812546
 0.224168 -0.944189  0.504074
-0.642911 -0.138631 -0.393864
-0.495998  0.867944  0.551915
 0.521464   0.48357 0.0768959
-0.304585  -1.18962  0.106231
 -0.857388 -0.0711449  -0.355991
 -0.75063  -1.34229 -0.701274
 0.454652  0.237054 -0.548879
-0.0893199   0.815828  -0.515425
0.0249757   1.20907  0.281784
 -0.3025  1.06337 0.595503
-0.220434  -1.40282 -0.856495
-0.288842 -0.244568  0.630169
-0.584087 -0.228678 -0.295946
0.0819495 -0.929548 -0.437122
-0.627783 -0.822438 -0.300683
0.0353709   -1.2142 -0.243919
-0.770099 -0.332709 -0.408338
-0.577351  -1.43039  -0.59141
-0.703608 -0.731527 -0.209494
0.193691 -1.17246 0.646113
0.0922131  -1.16303 -0.243713
-0.575371  0.318144  0.363676
  0.42591 -0.817647 -0.419315
  0.14506  -1.15801 -0.253387
 0.423538  -1.42781 -0.279417
-0.474532 -0.472009  0.443221
0.0413825  -1.11086 -0.415889
-0.67143 0.712384  0.38767
-0.523174 -0.830829 -0.617451
-0.210008 -0.170742  -0.71845
0.638522  -1.4305  0.24625
 0.661369 -0.141786  0.594401
-0.208098  0.584844 -0.649544
-0.0195884   -1.11712  -0.598696
 -0.416863   -1.38218 -0.0745993
-0.655668  -1.43015 -0.640678
   -0.158732      -1.4305 -0.000425411
-0.276933  0.332404 -0.718736
-0.366581 -0.737544  0.372605
-0.341535   1.29933  -0.04886
-0.104756  0.268159  -0.77359
-0.254367  -1.29477  0.188339
 0.177297 -0.178819  -0.72424
 -0.5422 0.623219 0.495498
 0.604802 -0.293376  0.536025
-0.0165448   0.909145  -0.307761
-0.487928   1.45835  0.508566
-0.469408   1.02582 -0.297459
0.355697  -1.4305 0.147524
  -0.6459   -1.0444 -0.506104
-0.209056  -1.31787 -0.519559
 -0.314132   -1.33646 -0.0363898
  0.561693 -0.0604215 -0.0844452
0.0858034  0.167431 -0.741012
-0.0759094   -1.43046   0.185504
 -1.01445 -0.224952 -0.275758
-0.357399  -1.41578 -0.612536
 0.351252 -0.713344  0.445509
-0.508665 -0.107821 -0.396357
  0.179794   -1.43049 0.00167411
0.0904325   1.12385  0.323434
  0.56537 -0.660474 -0.201423
-0.584885   1.15666  0.436881
  -0.75041   0.369186 -0.0805718
 0.668695 -0.218626  0.138147
-0.120202 -0.518061 -0.719909
-0.233202   1.45969  0.368298
-0.0735093   -1.43047   0.157967
0.0722154  0.168678  0.638404
 0.318155 -0.717371  0.460447
-0.548229  -1.40012 -0.523337
-0.200266  0.396162 -0.703675
-0.159439  0.656094 -0.567068
-0.194332    1.1792  0.578154
 -0.803687   -0.63705 -0.0742754
-0.173357  -1.32117  -0.45995
-0.649782 -0.993571 -0.240701
-0.511477 -0.534843  0.437583
-0.58844  0.18292 0.430909
 -0.514191 -0.0021486  -0.442476
-0.493849  -1.06971 0.0411892
-0.138679 -0.205687  0.665091
  0.793511 -0.0530979   0.414975
 -0.98723 -0.337107 -0.161313
-0.635631 -0.707124 -0.346206
 0.180819 -0.801396  0.476114
  0.54421 -0.012016 -0.147706
 0.15281 0.687765 0.633199
  0.3384 0.783142 0.152883
 0.425751   -1.4305 -0.231911
0.0848711  -0.43193  0.632887
0.0650447  -1.26067 -0.378874
0.0946352   1.15882  0.111973
-0.717589 -0.360396 -0.425417
 -0.59081 -0.587399 -0.405922
-0.473183 -0.910914  0.148018
-0.616298  -1.22458  0.034643
-0.0080841   0.792325   0.619943
-0.178948 -0.601334  0.408718
 -0.566843 0.00878971  -0.445245
 -0.389772   -1.43048 -0.0125325
0.0703914  0.011605 -0.661518
 -0.655922   -0.83276 -0.0641986
-0.254233  -1.38883 -0.164836
0.0273072    1.1929 0.0666179
0.242981 0.553361 0.486246
-0.0123703  -0.154745  -0.752808
 0.521155  0.184205 -0.324575
-0.479297    1.6084  0.439566
0.476947 0.480745 0.118675
-0.633183   1.42091  0.367306
-0.707585 -0.246431  0.274985
-0.467295 -0.208707 -0.401466
 0.720941 -0.276854  0.152569
0.0131114 -0.849136   0.42869
   0.529328    -0.32293 -0.00286819
-0.646441   0.38075  0.301841
0.446225 -1.43048 0.541957
-0.201084   -1.4305 -0.713835
-0.118144  -1.08598  0.476019
0.147409 -1.28366 -0.24706
-0.914309  0.012903  -0.12939
 -0.36647  0.918098 -0.482832
-0.0368677    1.26604   0.123772
-0.789096   -0.5233 -0.393314
0.241536 0.951478 0.216931
 -0.921865 -0.0506948 -0.0424378
 0.571255 -0.781685 -0.148723
 0.45983 -1.15103  0.48624
-0.466737 -0.389262 -0.387614
0.704659 -0.51475 0.215276
-0.0134749    1.04507   0.541344
-0.557841 -0.287017 -0.328399
-0.245096  -1.37242 -0.326975
-0.273299  -1.37775  0.189561
-0.612623   0.16433 -0.403332
-0.494277 -0.715355  0.201823
 0.498148   0.37649 -0.398414
0.254768 -1.42925 0.691596
-0.22236 -1.09753 0.313545
0.335841 -1.43034 -0.12982
-0.669501 -0.994223 -0.325871
-0.613365  0.308115 -0.368798
 0.347144  0.483041 -0.429689
-0.0210674    -1.4305  -0.535358
0.527446 -1.33937 0.532266
 0.585574 -0.257245 -0.255157
 -0.692038 -0.0752733   0.339734
-0.274584   -1.4293 -0.622794
  -1.01826  -0.200908 -0.0698603
0.21605 -1.4305 0.27168
0.340309 0.315991  0.43728
 0.146861  0.363959 -0.696255
-0.613272  -1.03178 -0.119596
-0.390886  0.746708 -0.492588
  0.235472 -0.0170913  -0.620338
-0.277752  -1.24509   0.11514
0.541441 -1.00642 0.024624
-0.0722815   0.675357   0.607557
  0.31375  -1.12938 -0.252793
 0.363478  -1.41428 -0.297819
-0.222064  -0.23916 -0.727917
-0.879035 0.0523597 -0.197607
0.463128 0.390429 0.145602
  0.55421 -0.453867 -0.396715
-0.732562 -0.584219 -0.367993
-0.408338  0.960128  0.565908
-0.0475651   -0.79092   0.433958
0.0486336 -0.240957 -0.760479
-0.346522 0.0976031   0.63589
0.276735  -1.4305 0.371558
-0.551956   1.07849  -0.15602
 0.531401  0.425409 -0.278056
-0.315118  -1.30042 -0.200177
 -0.346478    -1.3648 -0.0283247
 0.500092 -0.199245 -0.457569
-0.614887  -1.17753 -0.718814
0.0417622  -1.18459 -0.325389
-0.168328   1.39743  0.341294
0.0500254   0.67639  0.590658
-0.0221984    1.22888    0.35431
 0.361311  -1.14551 -0.212036
0.524879 0.246559 0.428687
-0.0961807   0.749577   0.643131
0.175264 0.171628 0.624118
 0.181949  0.998122 -0.238191
-0.62244 -1.36995 -0.49584
0.123276 0.219152 0.604516
0.350755 0.475175 0.330509
-0.381567 -0.157467 -0.505504
-0.721763  0.874463 -0.135147
-0.511652  0.434242 -0.374236
-0.278736  -1.13714 0.0759722
 -0.11946 -0.855447  0.392971
-0.406286 -0.344977 -0.518701
-0.273189   1.45965  0.450041
 0.412811 -0.629383 -0.525627
-0.0708061   -1.37287  -0.386979
-0.826078  -1.42852 -0.517485
-0.400354  0.198559 -0.579072
-0.158734  -1.42986 -0.437231
0.116913 -1.07843 0.613969
0.220591 0.958035 0.274399
-0.712612  -1.15476 -0.172695
-0.478897  0.338862 -0.390161
-0.946998 -0.424009 -0.205016
  0.37657  0.695674 0.0229188
-0.168008 -0.645542   -0.7102
-0.325349 -0.903569 -0.794326
   0.683856 -0.00910894    0.206905
  0.234729    1.08741 0.00539562
-0.267182  -1.41363  0.112215
-0.0183677   0.627796  -0.642063
0.501843 -1.42378 0.595648
-0.626553  0.614595  0.378154
 0.481632  0.196152 -0.479003
 0.331802  0.332364 -0.633672
 -0.11637 -0.654775  0.445942
-0.556894 -0.608043  0.118397
-0.594553 -0.334013  0.448558
0.340869  -1.4305 0.385669
0.0916873  -1.43025 -0.297154
-0.432751 -0.554916 -0.563221
 -0.47531 -0.667759 -0.534595
-0.332739  0.341741 -0.693747
 0.343603 -0.349063  0.593162
-0.119161   1.35264  0.170378
0.187539 -1.28706 0.685354
0.0614093   -1.4305 -0.244126
 0.693517 -0.456504  0.367171
-0.157872 -0.957165  0.347323
 0.649821 -0.364506 0.0305305
0.222391 -1.28873 0.680125
0.583564 -1.25472 0.391745
-0.296404   0.17885 -0.669318
-0.313274   1.43757  0.130609
-0.663454  0.285926 -0.245678
-0.232727  -1.00611  0.170797
-0.495118  -1.37984 -0.409974
-0.574244  -1.17916 0.0363402
 0.469397  0.549445 0.0624445
0.00231514    1.19073  0.0104064
 0.234101 -0.922585 -0.399709
-0.993903 -0.299664 -0.131293
-0.0390569  -0.422367  -0.737229
-0.778447   0.82597 -0.136119
-0.389337 -0.177012  0.602106
0.0103709   -1.4305   -0.5668
-0.308897  0.410458 -0.669227
  0.423544 -0.0730306  -0.494845
-0.371527  -1.41086 -0.414108
-0.435783  0.926047 -0.448471
0.259084 0.766031 0.379247
 -0.526947   -1.32815 -0.0987457
  0.603281 -0.0520429   0.129152
 -0.641772 0.00876431  -0.424163
-0.0126535  -0.394635   0.637395
-0.498264 -0.688385 -0.525134
-0.442927  -1.19393 -0.818877
 0.068511  -1.12645 -0.233243
-0.343772  0.266021  -0.68402
 0.393689  0.218154 -0.610477
 0.525791 -0.815312  0.204323
-0.645411 -0.638908 -0.382334
-0.424574  0.333065  0.480768
0.0260023 -0.333526 -0.755081
-0.0269572  0.0198696   -0.67573
-0.736627  0.155375 0.0498062
 -0.63488  -1.41577 -0.254349
-0.652269  -1.34009 -0.592628
-0.410775 -0.942542  0.157515
  0.351858 -0.0148799  -0.531367
-0.438751   -1.3972 -0.379064
 0.553767 -0.328977  0.569724
   0.35426 -0.0936633  -0.585567
-0.605888  -1.35829 -0.922068
-0.692375  0.402253  0.245139
-0.560071  0.259012  0.306151
-0.596155   0.71609  0.470123
0.295524 0.442998  0.46746
0.142275  -1.4305 0.515911
 0.393724 -0.473198  0.467221
-0.624009 -0.305017  0.435635
-0.377649 -0.593589 -0.646041
-0.530059 -0.712908 -0.491727
0.368083 0.385177 0.367257
-0.182514  -1.43047  0.401969
-0.881162 -0.470555 0.0539449
0.0563095 -0.404399 -0.724861
-0.164773  0.728996 -0.547827
  0.567722   -0.52617 -0.0243305
 0.547597  -1.43048 -0.194462
-0.47287  1.50771 0.238653
-0.145336  -1.31197 -0.218895
-0.0823117   -1.03622   0.502025
-0.19569 -0.27777 0.645089
 0.760671 -0.134341  0.522885
0.596011 -1.34347 0.434444
 0.377746   -1.4305 0.0259056
 -1.01747  -0.12224 -0.260202
-0.714878  0.249348 0.0186757
 -0.511451   -1.36462 -0.0414038
-0.494166 -0.233401 -0.365509
-0.320201  0.780922 -0.530744
-0.538623    1.3079 0.0667361
-0.606299  -1.38982 -0.153959
-0.0746464  -0.690628  -0.704884
  -0.95676  -0.362538 -0.0986296
-0.820747 -0.451651  0.111377
-0.712901  -1.42318 -0.712022
-0.201286   -1.4109 -0.212887
-0.594862  -1.43046 -0.725428
-0.419062 -0.315223 -0.541713
-0.463124  -1.09389 0.0587253
 0.388193  0.964446 0.0107257
 0.509102 -0.674642 -0.368411
  -0.586342   -0.898217 -0.00139835
-0.379406   1.57472  0.409043
 -0.318116   -1.43049 -0.0117559
 0.314838 -0.882701  0.463228
 0.576824 -0.782217 0.0325799
0.0650992   1.16656  0.292649
0.102506 0.698737 0.625347
 0.649379 -0.547669   0.32604
-0.292865  -1.35241 -0.927399
-0.145806   1.05073 -0.299184
-0.532514  -1.31693 -0.578393
-0.225788 -0.163162  0.663496
-0.808353  0.714144 0.0231881
 0.508928 -0.683332  0.297574
-0.815464 -0.198705  0.185509
-0.15424 -1.12433 0.457823
-0.206921   -1.3006 -0.227907
 -0.02806  -1.39074 -0.669093
-0.163323   1.04328 -0.376974
 0.562767 -0.560716 -0.369144
   0.53557  -0.372291 -0.0538884
 0.548625   0.22733 -0.241484
0.0100603  -1.29611 -0.569774
0.0201083 -0.944406 -0.570711
  -0.473848 -0.00313774   -0.437775
-0.390658  -1.37575   0.13563
0.213722 0.710385 0.611458
 -0.66235 -0.118237  0.369604
0.322205 0.890916 0.156311
 -0.10586   1.00386 -0.357058
-0.0690264    1.30426   0.158446
-0.526921  -0.15412  0.483028
     0.541  -0.949343 -0.0588402
-0.905547 -0.196347 0.0243143
  0.621983 -0.0602969    0.58669
-0.338427  -1.30114 -0.567793
 0.602424 -0.296271 0.0503196
 -0.732995   -1.26199 -0.0700709
-0.0191127  -0.917094  -0.660991
  0.52333   -1.4305 0.0565133
-0.804714  0.899499 -0.152772
   0.215479    -1.43049 -0.00817563
-0.384954  0.396401  0.516447
-0.967031 -0.374294 -0.250739
 0.10602  -1.4305 0.405468
-0.255298 -0.876791 -0.758402
-0.454434   1.33311  0.521571
0.0420539  -1.15856  0.627273
-0.207504   1.05211 -0.424803
 0.641687  -1.32935 -0.237771
-0.745657  -1.42589 -0.404623
-0.113266 -0.853162 -0.717377
 0.411664 -0.128341  0.625102
-0.139183 -0.484871  0.558637
-0.510598    1.1202  0.497487
0.675957 -1.42974 0.110934
-0.475193  0.302456 -0.461654
-0.336499  -1.25018 -0.951909
0.206462 0.559505 0.427052
 -0.41284 -0.815226  0.285889
-0.200005  -1.03349 0.0742629
-0.661573 -0.857202 -0.288883
0.366631 0.116965 0.504562
 -0.541057    1.17985 -0.0688344
0.378586 0.435198 0.304726
  0.578664 0.00163123  0.0521482
-0.183593 -0.906035 -0.756734
 -0.20527  -1.39591 -0.577142
 0.311627 -0.445427  0.459431
-0.573988  -1.03088 -0.663731
-0.106002 -0.411826  0.586736
  0.218363 -0.0602363   0.636853
 0.582117  -1.16619 0.0269096
-0.382905  -1.37969 -0.696436
-0.455317  -1.41447 -0.650955
 0.561733 -0.410799 -0.094493
-0.0944864    1.33243   0.271586
 0.196869 -0.633369 -0.670237
   0.2674 -0.298913  0.628777
-0.511304  -1.23063  0.107105
-0.250275 0.0836924 -0.585411
0.493671 0.319893 0.375043
-0.418254  -1.31552 -0.193476
-0.750859 -0.156526 -0.384379
 0.526348 -0.108896 -0.125917
   -0.882281 -0.000964088    -0.295223
-0.591914  -0.11782  0.426899
  -0.73603   0.916109 -0.0353037
-0.390435   -1.2784  0.139617
-0.615674  -1.34757 -0.623124
-0.363776   1.25567 -0.093013
-0.181861   -0.9666 -0.798177
 0.241534 -0.485677  0.558894
 0.291768 -0.905892 -0.407892
-0.153887  -1.29582  0.540644
-0.000985687     -1.09901    -0.551468
-0.628187  -1.34905 -0.248091
-0.201342 -0.853285 -0.743956
0.234391  -1.4305 0.568092
    0.4574 -0.0573811  -0.427623
 0.368845  0.786927 0.0413509
  0.392888    -1.4305 -0.0869792
  0.40151 -0.976627 -0.248793
-0.846499 -0.236625  0.163351
-0.135991  -1.11608  0.471355
-0.224942  -1.36946 -0.595201
0.438598 -0.97355 0.393613
-0.624916  -1.29165 0.0686981
  0.141543    1.12307 -0.0265019
-0.280433  -0.29057 -0.678597
-0.563468 -0.517092  -0.42154
0.0143767   -1.4305  0.564138
 -0.838005   0.770692 -0.0165642
0.497419 -1.19067 -0.12318
 0.205274   0.69006 -0.498532
-0.336176   1.09165  0.583524
-0.662993  -1.13451 -0.638826
0.157714  1.05791 0.222934
0.0304688  -1.43048 -0.283179
-0.257965  -0.13039 -0.670435
-0.812913 -0.234039  0.210461
-0.485063 -0.284809 -0.344612
-0.616524 -0.407158 -0.404629
-0.211967   1.45294  0.264791
-0.845184  0.687597 -0.138489
-0.229926 -0.749956 -0.710536
-0.690304  0.833097  0.361395
-0.653323 -0.905522 -0.247513
-0.349225  -1.03327 0.0956742
 0.189949  0.878343 -0.312103
-0.829802  0.580206 -0.159145
-0.135451  -1.43046  0.228793
 0.162925  0.597954 -0.553532
-0.679034 -0.778335 -0.248888
  0.678691   -1.42452 -0.0635945
-0.481115  0.817533 -0.405497
-0.270804   -1.3134 -0.537927
0.0556568 -0.550025  0.586473
-0.562552   0.53113  0.438619
-0.173054  -1.36693    0.5388
0.0457526  0.205513  0.642275
-0.574403   1.49716   0.27662
-0.562481  0.770399    0.5049
-0.750985  -1.30741 -0.672133
  0.512951 -0.0710159  -0.259431
-0.611347   1.29089  0.123656
0.262788 0.211697 0.540207
-0.0364102  -0.257191   0.675735
-0.523809 -0.901596 -0.706158
 0.194122 -0.902755 -0.449411
-0.0743923   -1.35077   -0.70197
 -0.36889    -1.329 -0.382888
0.191167 0.534282 0.584547
 -0.49991  -1.40381 -0.133175
-0.581309 -0.224573  0.431466
0.0191516  -1.06473 -0.277299
-0.318564  -1.42757 -0.479618
-0.568698  0.732161  -0.28654
 0.509909 -0.157923  0.606193
0.074274  -1.4305 0.264144
 0.403328 -0.355059 -0.608558
 0.065124  -1.26541 -0.344102
-0.297061   1.46928  0.474273
-0.491132  -1.31251 -0.420082
-0.205713  -1.17861  0.413327
-0.363157 -0.104762 -0.499035
-0.439494   1.24121  0.526502
-0.0764348    -1.4098  -0.430969
 0.766408 -0.314624  0.310534
 0.29676  0.64533 0.226215
0.259861  0.90744 0.272585
-0.602873  -1.13239  -0.02154
 0.140163 -0.219689  0.664114
-0.423023  -1.30153 -0.564683
-0.183748  0.831905   0.63644
-0.510949  -0.60468 -0.415269
0.274736 0.839581 0.231782
  -0.791556   0.0871739 -0.00154955
-0.452887 -0.275466 -0.390032
 0.450198 -0.669143  0.312052
   -1.0079 -0.0722239  -0.214543
 0.555676 -0.917543 0.0597003
-0.618748  0.933232 -0.201951
-0.756897 -0.062808  0.251899
-0.213822 -0.817921  0.370632
-0.873252 -0.584107 -0.189554
-0.212362    1.3694  0.471011
-0.738383  -1.14347  -0.47986
-0.421342  -1.33985  0.143417
-0.583687  -1.39885 -0.897675
 0.677999 -0.284931  0.501203
-0.592818 -0.744553 -0.393042
0.660371 -1.28538 0.158106
-0.390231  -0.66438  0.393272
-0.00859319  -0.0500141    0.659346
 -0.872305  -0.480115 -0.0505389
  0.562287  -0.448449 -0.0479096
  0.545255  -0.148986 -0.0758721
-0.216941   -1.3006 -0.128895
 -0.179772    1.24341 -0.0899706
0.499618 0.398584 -0.36657
-0.441677   0.89325 -0.454704
-0.273164 -0.340839  0.606336
0.708086 -1.37907  0.10941
 -0.226901    -1.4305 -0.0318867
 0.522155  -1.23868 -0.208208
0.281947  -1.4305 0.157215
-0.168342 0.0811107 -0.646697
 0.545121  0.221033 -0.186644
-0.0790098   -1.30421  -0.401194
-0.223243  -1.32503 -0.874054
 -0.76527  -1.43033 -0.411009
-0.732887  0.100593 -0.338146
-0.539219 -0.257117  0.473865
0.0746088   1.17378 0.0310625
-0.193976  -1.42977  0.471743
-0.716364  0.875542  0.305088
0.0185398  0.927259 -0.344902
 0.577934 -0.142096  0.598151
-0.569819 -0.124737 -0.386754
0.610447 -1.20814 0.119237
 0.241083   1.03914 -0.108654
-0.223111    1.0848 -0.322079
 0.544992 -0.425277  0.537813
 0.577502 -0.286813 -0.110765
0.292845 0.983506 0.124067
 0.532363   0.23951 -0.408865
-0.744516  0.372939  0.182095
0.0471028 -0.299678  0.680095
-0.0708473   0.129578   0.698915
-0.585545  -1.41581 -0.070743
-0.0969506   0.990881  -0.386567
-0.818428  0.534182 -0.167975
 -0.3436  1.53722 0.450707
-0.219375  -1.04407 -0.795024
0.127211  1.14134 0.137519
-0.638433  -1.43049 -0.661005
0.0131512  -1.15021 -0.531274
 0.358823 -0.460947  0.464799
-0.0439013   0.342143  -0.735542
  0.168435 -0.0371801  -0.670217
 0.538591 0.0867119  0.510696
-0.591866 -0.269469  0.449754
 0.752507 0.0356956  0.395571
-0.240415  -1.43043 -0.666066
-0.520726  0.647008 -0.378236
-0.563375   1.10984  -0.12364
-0.274796 -0.367686 -0.654532
-0.288002  -1.07198 0.0885152
 0.191611 -0.571742  0.524109
-0.125442  -1.43046  0.193408
0.101555 0.411677  0.51158
  0.573614 -0.0589348   0.581984
-0.117643   1.14328  0.561541
 -0.52721  -1.39407 -0.933245
-0.0810976    1.10603  -0.174606
0.0149373  0.718468 -0.518162
 0.229695  0.772381 -0.298054
-0.604461  0.553484 -0.189241
-0.362075  -1.11475 -0.775826
-0.392597  0.991758 -0.447365
0.0195527  -1.18307 -0.496997
 0.759519 -0.318411  0.350785
-0.0929248  -0.601671   -0.72705
 0.324511  -1.21241 -0.227613
  0.560828  -0.989714 -0.0509357
0.27002 0.54081 0.22496
-0.167515  -1.02105  0.356566
 0.688291 -0.153298  0.585015
-0.664317   1.31853  0.329581
0.547376 -1.43051 0.230231
 0.668924 0.0612511  0.235548
 0.142236 -0.427742 -0.716889
-0.387989  0.285047 -0.648782
 0.469747  -1.43048 -0.204773
-0.875049 -0.323384  0.126627
-0.754309 0.0525225  0.186898
  0.576326  -0.356077 0.00603471
   0.19395   -1.43049 -0.0235027
-0.371001  -1.40089 -0.365299
-0.286228   1.05842  -0.40986
-0.266303   1.19512  -0.15283
-0.273237  -1.41964  0.274379
-0.754339  0.769724 -0.132155
-0.333135 -0.344474 -0.595107
-0.363852  -1.38233 -0.555402
 0.354168 0.0292508 -0.497618
 0.411937 -0.130301 -0.545282
-0.702636   1.05137 0.0136124
  0.67272 -0.492847  0.051025
 -0.590927   -1.10904 -0.0435461
 0.293568 -0.399797  -0.66868
 0.535511   0.47831 -0.102537
0.643138  -1.4305 0.168558
 0.445802 -0.829842  0.283492
 0.270263  -1.12552 -0.250765
  0.49684 -0.276671  0.619443
  -0.1353 -0.209128 -0.752224
 0.439777  0.646405 -0.158699
-0.145435  -1.42949 -0.421656
-0.0214004   0.490091  -0.625387
0.00374295   0.688436    0.57816
 -0.56109  -1.33237 -0.508025
-0.423328   -1.3124 -0.118077
-0.691301  -1.43026 -0.122142
-0.235288   1.22197 -0.126993
 -0.76666   -1.2548 -0.556392
-0.636667 -0.503239  0.185693
0.103492 0.181127 0.630031
-0.693936   1.00614  0.330382
 -0.137339 -0.0309323   0.700474
-0.527555 -0.514487 -0.399657
  0.27002  0.968181 -0.117444
 -0.784865   -1.38841 -0.0660217
 0.333642  0.970211 -0.013729
-0.694911  -1.42423 -0.326159
-0.568555   1.59959  0.452418
-0.494733  -1.37381 -0.269345
-0.77516 0.818086 0.169066
-0.243887  0.470685 -0.644402
-0.778566  0.557452 0.0118764
-0.470888  -1.42958 -0.875451
  0.73769 0.0394959  0.420126
  0.564427  -0.668936 -0.0909259
-0.516988  -1.35583  0.126228
 -0.760962   0.195288 -0.0250778
-0.0713376    -1.4305  -0.175776
-0.462587  0.762726 -0.409242
  0.344847 -0.0889605   0.638908
-0.243611  -1.33378  -0.45331
0.0422742  0.864451  0.582811
-0.536671  -1.00557 0.0145194
-0.115578  0.785059 -0.529147
   0.19305 -0.0799835   0.646059
-0.556127 0.0975441  0.523006
 0.402267  0.498143 -0.337507
-0.345447  0.516052 -0.624269
-0.302259  0.742768  0.630142
-0.257952  -1.43045   0.24221
0.0882802  0.431506 -0.645364
-0.570316 -0.379704 -0.377542
-0.552696 -0.641931  0.235315
-0.786411   0.18153 -0.135382
 0.699339 -0.490348   0.13263
 -0.10177  -1.39975 -0.507483
-0.466327 -0.565839 -0.507061
-0.716238  -1.43049 -0.571413
-0.387512  0.486571   0.53623
-0.472998 -0.749699 -0.631149
0.137483 -1.24875 0.678184
 0.508267  0.138715 -0.282851
-0.404583 -0.551008  0.452598
  0.1503   1.0313 0.326184
 -0.809234   0.485455 -0.0505787
-0.545375  0.479443  0.432248
-0.233463 -0.326046 -0.688315
  0.558706 -0.0643971  0.0249821
0.414719 0.586298 0.108719
0.423226 0.561548 0.139784
-0.613917  0.526629  0.381629
 0.270143 -0.447277  0.514493
-0.608153  0.641993  0.438887
0.553473 -1.27698 -0.29548
0.364789 0.750194 0.116362
 0.216951   1.00256 -0.210512
 0.277661  0.128731 -0.656446
-0.180077  -1.30085 -0.407119
-0.0236206   0.187443   0.673029
 -0.35326  -1.39879 -0.610902
 0.590371  0.191142 0.0299715
0.0557112 -0.716115  0.511042
0.0356498  0.535652  0.560996
-0.845358  -1.32772 -0.366761
 -0.810638 -0.0782546   0.136856
-0.486338  -1.30149 -0.312132
0.396599 0.127671 -0.55025
-0.244545   1.03582 -0.451264
  0.18352  0.906248 -0.340701
 0.172022 -0.325506 -0.738958
-0.225617  -1.34144 -0.538616
-0.0834615    1.32683   0.235176
-0.773815   -1.2459 -0.171435
-0.253564 -0.212954  0.647137
 0.110122   0.20475 -0.756765
-0.478575 -0.541869 -0.375944
-0.411505  0.197725  0.551843
-0.449908 -0.728505  0.331906
-0.506655 -0.677044  0.157563
 0.407552 -0.264046  0.624062
 0.437729 -0.894539 -0.333363
-0.0108005   -1.31657  -0.618921
 -0.693369  -0.775402 -0.0573188
 0.646235 -0.355406  0.499633
-0.286373   1.29273  0.564363
 0.573244 -0.226998  -0.30691
-0.460313  -1.39213    -0.483
 0.287894 -0.946928 -0.324505
-0.509487  -1.36442  -0.68337
-0.509798  0.413342 -0.447317
-0.524429  -1.43034 -0.705882
-0.293839  0.445799  0.552636
0.0502199   1.01984  0.497969
-0.114632  -1.01155  0.426518
-0.217692  -1.37458   0.48021
 0.499011 -0.547586  0.426566
 0.189664  0.640228 -0.550632
 0.666469 -0.547183  0.294228
-0.513216 -0.129696  0.519386
-0.656875 -0.907197 -0.166902
-0.598316 -0.814908 -0.479957
-0.446485 -0.544991 -0.512366
-0.0139434   0.534691   0.550115
 0.420978  0.167925 -0.553887
-0.0615458   0.317137   0.547711
  0.449307   -1.43043 -0.0543449
-0.500847 -0.799955  0.161669
  0.156748 -0.0993348   0.656492
-0.540067   0.58175 -0.331881
-0.584476  -1.25709 -0.926844
-0.652417   -1.3064 -0.402016
-0.846032 0.0481159 -0.049339
0.0845604  0.999469  0.472207
-0.556918  -1.41851 -0.210098
 0.366302  0.848472 0.0719122
-0.767188  0.682832   0.12052
-0.387599  -1.43042 -0.484674
-0.766037  -1.36852 -0.038037
-0.691118  -1.34553 -0.443795
  0.5466 -1.11144  0.28805
0.744345 -0.42094 0.219619
-0.459425  0.296597 -0.387302
-0.720204 0.0935693  0.282867
 0.182587  -0.69951 -0.634718
0.0591856   0.14852 -0.735975
-0.183833  -1.32921 -0.482873
 -0.311518 -0.0937827  -0.587805
0.0352974 -0.938473 -0.473239
-0.471644  0.257508  0.410513
-0.343433  -1.38036 -0.483313
-0.0307273  -0.749303  -0.648883
-0.72765 0.333129  -0.1625
-0.426807   -1.4305  -0.76401
 0.366481 -0.911904 -0.339985
-0.639123 -0.907167  -0.45493
 0.458894 -0.103837 -0.465781
0.107365  -0.1195 0.663223
-0.622406 -0.896689 -0.399895
-0.689937  0.179098  0.118492
-0.0708478   0.965057  -0.326473
-0.238629  -1.06468 0.0772634
0.0250032 -0.957025  0.496046
0.505544 -1.09689 0.342527
0.593275 0.298978 0.277202
-0.451116 -0.931106 -0.774956
 0.383677 -0.498049 -0.632696
-0.495184  -1.14963 0.0650138
 0.152432 -0.546035   0.57293
 0.252818 -0.355261  0.600633
0.237939 0.574905 0.575069
 0.336226  0.684162 -0.389255
0.719161 0.042506 0.458706
 0.313598 -0.650545 -0.594489
  0.597474   -1.20636 0.00270825
-0.217424 -0.302598  0.633736
 -0.152727    1.22735 -0.0963862
-0.246039 -0.673289 -0.698736
  0.73497 -0.103385  0.236236
-0.562349  -1.32456 -0.208418
 -0.784019 -0.0699722  0.0433026
0.279668 0.113766 0.591774
-0.150038  -1.41568 -0.346889
 -0.289775    1.28299 -0.0686492
0.474457  0.33097 0.376206
0.0297846  0.963898  0.548315
-0.00922634   -0.718347   -0.698562
-0.304664 -0.590355  0.423375
 0.490065  0.158395 -0.426161
 0.544589 -0.730336 0.0522354
0.620404 -1.32576 0.357862
  0.467379 0.00941101  -0.263462
-0.760564  -1.32904 -0.676616
-0.00907624    0.951242    0.576538
-0.513193  0.696914  0.534776
 0.129874  0.652371 -0.587044
-0.632171  0.875233 -0.223144
 0.492278   -1.2107 -0.138484
-0.625184  0.144273  0.411891
-0.0489144  -0.583704  -0.717749
 0.23107  -1.0391 0.550802
-0.104638  0.315946  0.572934
-0.468194    0.3754 -0.574861
-0.731257  0.262961 -0.156481
-0.163182  0.579159  0.604391
 0.358523  0.160409 -0.626565
-0.518134  0.912423  -0.30975
0.332417 0.632785  0.19487
-0.457757  0.602587  0.545653
 0.482544  0.270475 -0.509669
-0.791023  -1.43043 -0.390193
0.0627171  -1.12955   0.62333
-0.897369 -0.223514 0.0717889
 0.332708  0.705126 -0.336293
-0.519511  0.104527 -0.442533
0.0583296  0.781312 -0.496054
  0.545986  0.0242481 -0.0986484
 0.396557 -0.833974  0.365294
-0.496066  0.514701  0.483902
-0.543601   1.13139   0.47429
0.103642 0.484487 0.554683
 0.513764    -1.069 -0.127414
-0.549813 -0.482458  0.397402
-0.34487 0.288085 0.505331
-0.509906 -0.770245  0.145911
-0.863452 -0.136403 0.0383329
-0.822046 -0.488579 0.0796228
 0.343004  -0.13351 -0.614476
-0.367251   -1.3112 -0.610045
-0.269607  0.201749  0.614635
 0.21815 0.448864 0.532776
 0.512142 -0.753806 -0.308912
-0.588818  -1.42913 -0.806602
 -0.547382   -1.04848 -0.0136826
-0.892174 -0.539325 -0.239673
 0.242919   -1.4305 -0.119677
0.561923 -1.25778 0.431095
-0.578768 0.0472874  0.501544
 0.198121  -1.18438 -0.248901
 0.536381 -0.133165 -0.336752
  0.59337 -0.494986 -0.183614
-0.339149  -1.30148 -0.677871
-0.370061   -1.4305 -0.812237
-0.621969  -1.05214 -0.583427
0.0583301   -1.4305 -0.415583
-0.396662 -0.353664  0.523315
-0.57437 0.457598 0.394262
-0.373806 -0.896299 -0.779312
-0.774036  -1.26023 -0.148581
-0.624727  0.635619  0.389823
  0.522177   0.264895 -0.0124369
 0.49794 0.364854 0.116097
 0.537206 -0.581432  0.385832
0.481391 -1.34935 0.584803
  0.481446   0.161807 -0.0844068
-0.742239  0.598773  0.139637
0.320303 -1.43043 0.671023
-0.343079 -0.962472  0.186156
-0.266173  0.115517 -0.628307
 -0.403636 -0.0497185   0.610996
0.397583 0.282921 0.456052
-0.573497  0.886394  0.486416
-0.22321 -1.43045 0.257502
 -0.655061   -0.68584 -0.0166627
 0.400669  0.682904 0.0875565
0.449998 0.654406 0.045404
0.436103  -1.4305 0.203263
-0.522562  -1.43044 -0.433618
-0.182243  0.452557  0.590395
-0.701272  -1.39797 -0.779195
 0.608294 -0.574016 0.0262434
-0.518964 0.0498326  0.560646
-0.235612 -0.475114  0.546336
-0.243277   -1.4305 0.0722216
-0.368346   1.18191  0.559116
-0.784536   -1.2189 -0.459743
 0.395109  -1.20657 -0.203991
-0.644325 -0.987943 -0.433443
-0.0161618  0.0958331  -0.686724
-0.242653 -0.985598 -0.813858
-0.415514  -1.15493 -0.791782
-0.412668 -0.682523 -0.640042
-0.0183052   0.315176   -0.74174
 -0.56736  -1.30717 -0.338625
 0.710644  -1.34113 0.0102406
-0.690781  -1.07581 -0.366424
-0.175729  0.228563  0.610486
-0.228983  -1.12283 -0.770871
0.0375718  -1.18552 -0.281709
-0.0766652  -0.798634  -0.675952
-0.0181271   0.395974  -0.693051
0.530606  -1.2441 -0.29582
-0.657459  -1.35512 -0.387116
  0.54758 -0.953754 0.0395742
-0.279597  0.686544 -0.518476
-0.616948  0.175151  0.363417
-0.497192 -0.408951 -0.359659
 0.189785 -0.486687 -0.707257
  0.12947  0.571517 -0.572133
-0.252873 -0.098475  0.658589
  0.507438   0.496319 -0.0828595
 0.466785 -0.356116 -0.540375
 0.0365178    1.10971 -0.0933982
-0.155733   -1.4305 0.0583339
-0.630857  -1.38413 -0.554501
-0.561296  -1.41952 -0.425475
 -0.70864   -1.1032 -0.275536
-0.608611 -0.811829   -0.4485
 -0.451558 -0.0950312   0.580541
-0.463671   0.32861 -0.562046
-0.426366 -0.584307 -0.599453
-0.230912  -1.43019 -0.567038
 0.275301  0.337588 -0.661157
 0.173435   -1.3234 -0.256128
  0.30718 -0.806789  0.437621
 0.326948   -1.4305 0.0480385
 0.037072  0.730791 -0.492598
 0.410963 -0.971459  0.418001
 -0.145737    1.26425 -0.0509142
0.194701 0.902638  0.40662
 0.124504   1.07936 -0.127749
-0.552242   -1.1721 -0.765596
 0.123288   -1.4305 -0.250424
 -0.912236  -0.375808 -0.0281233
 0.137754 -0.955537  0.525118
-0.0928623   -1.31294  -0.247073
 0.694292 -0.406769 0.0757925
0.475392 -1.00378 0.353951
-0.0654721    1.21383   0.450099
 -0.44017  -1.36316 -0.375467
 0.493101 -0.386367 -0.491646
-0.317487  -1.38575 -0.420911
0.187077 0.592095 0.607929
0.608633 -1.21865 0.269669
-0.607771   1.33902  0.164899
-0.836199   -1.4299 -0.348204
 0.459553 -0.582339 -0.507407
0.243342 0.733874 0.380873
 0.182701  0.354675 -0.691301
0.0188989  -1.03128  0.558602
-0.784416  -1.23103  -0.49199
0.300589 -1.27116 0.655174
-0.774722  0.188392 -0.201087
-0.656691   1.16364 0.0568556
-0.324337 -0.690819   0.39232
-0.315813  -1.41656 -0.247317
 0.513644  0.492667 -0.207501
 0.116443  -1.43048 0.0389818
-0.353306 0.0187523  0.626115
-0.631767  0.247453  0.130697
 0.767379 -0.160387  0.271347
-0.562293  0.239982  0.345987
0.161072 0.262518 0.559259
-0.852664  -1.43011 -0.262813
-0.363841  -1.10312 0.0690706
 -0.09405 -0.140987  0.672922
-0.226834  -1.38462 -0.873731
-0.358532  -1.00894 -0.797944
-0.178126  -0.02371 -0.667167
-0.190073  -1.11098  0.381761
-0.305573 -0.524582 -0.647259
-0.638494  -1.21491 -0.738549
-0.404609   -1.3745 -0.655178
-0.472014   1.18445 -0.119633
  0.30352   1.01602 0.0778632
-0.0914432   0.189963   0.676886
-0.634884  -1.42941 -0.105558
-0.196475  -1.09195  0.074432
-0.765719 -0.027598 0.0618731
0.578299 -1.15298 0.281939
-0.712349 -0.747238 -0.100271
-0.446436  0.379513  0.486451
-0.580675  -1.38847 -0.597966
-0.732387  0.859563 -0.200386
-0.133274   0.46479  0.598131
0.042012  -1.4265 0.676917
  0.255425    -1.4305 -0.0545969
 0.130541 -0.261907  0.692035
 -0.787769 -0.0347015   0.204441
-0.601376 -0.911212 -0.590755
-0.169338  0.727637  0.649288
-0.631371   1.44006  0.297669
-0.301019 -0.510224 -0.635739
-0.732362  0.443514 -0.202258
-0.120675  0.667959 -0.565256
-0.752938  0.201505 -0.224003
   0.52211   0.213139 -0.0922803
-0.442756  -1.32155 -0.229277
-0.745377  -1.42927 -0.278799
 0.329867 0.0660933 -0.570046
-0.738743   1.03663  0.100863
0.0578186  -1.37273 -0.523967
-0.503092  -0.59939 -0.461667
-0.0197021   -1.09224   0.568978
-0.515797 -0.605518  0.359455
0.0427514   -1.4305  0.285246
-0.626781 -0.424508  0.368123
 0.210399   1.06359 -0.170808
0.211485 0.170936 0.610152
0.0449358  0.896359 -0.474183
-0.486505 -0.158794  0.544829
  0.154895    -1.4305 -0.0338986
-0.579121  -1.13078 -0.721947
-0.476024  0.685792  0.556936
-0.317829   1.42538  0.525388
  0.67472  -1.23015 -0.170597
-0.279867  0.615126 -0.595246
0.183987 -1.14387 -0.25356
-0.314058  0.329542  0.554974
-0.707374  0.584631   0.23513
 -0.53514  -1.20224 -0.813735
-0.225297  -1.13172  0.276803
 0.785428 -0.140094  0.464486
-0.371727  0.844835 -0.529357
-0.751818 -0.522587 -0.413069
-0.482715  -1.30131 -0.380122
-0.892748 -0.522693 -0.140043
 -0.921166 0.00643391  -0.236475
-0.253614   1.46698  0.213802
-0.680941 -0.276543  0.335572
  -0.330692 -0.00558761   -0.512354
0.515207 -1.23802 -0.17226
 -0.50189 -0.646477  0.318078
 0.131896 -0.801651  0.465539
0.112393 0.457426 -0.62077
 0.428173 -0.373409  0.576343
-0.0519548  -0.817828   0.393636
-0.632139 -0.851962 -0.327894
-0.109689  -1.32072 -0.320995
-0.741871  0.824646  0.261264
-0.486627  0.588972 -0.401889
-0.543839  -1.30681  0.116699
-0.338797 -0.218189 -0.635174
 0.227118 -0.157801 -0.698433
-0.620385 -0.295162 -0.368472
-0.334021  0.117075  -0.56102
-0.272765  0.280507  0.521587
-0.718656 -0.064654 -0.414026
-0.674235 -0.690187 -0.338536
0.639154 -1.43047 0.414458
0.104172 0.940316 0.519828
 -0.569915   -1.30194 -0.0713607
-0.816107  -1.25714 -0.337577
0.0643841  -1.24816 -0.410225
-0.434308   1.09221 -0.274886
 0.675849  -1.22289 -0.166071
 -0.58296 -0.667265 0.0623468
 -0.256299 -0.0194782   0.665239
0.288087 -1.32719 0.680332
-0.740705  -1.37557 -0.349138
0.426868 -1.10187 0.483415
-0.584174  0.142125  0.474381
 0.472362 -0.951689  0.294969
 0.202974 -0.283788 -0.726311
-0.372438  -1.40911 -0.223302
 0.239735 -0.811293  0.458547
0.0324426  -0.76933  0.484219
 0.136861   -1.4305 -0.218662
-0.565271  -1.36042 -0.320917
-0.650396  -1.26481 -0.840291
-0.332557  -0.68758 -0.686543
-0.0343598   0.355258    0.58659
-0.117856  0.522845 -0.664191
-0.714708  0.116078 0.0813448
 0.576847 -0.319843 -0.166372
-0.634849   1.24454  0.110556
-0.357689   -1.1876 -0.812817
-0.253966  -1.35992 -0.512851
-0.354069  0.114947  -0.51776
-0.569732  -1.35758 -0.175808
0.669993 -1.43034 0.260132
-0.748163  0.681689  0.215743
-0.529179   1.51054  0.262912
 0.485267  0.532336 0.0247734
 -0.623261  -0.856626 -0.0262712
  0.33364  -1.14409 -0.224971
0.0240926  -1.24196  0.656267
-0.609198 0.0649174  0.441963
-0.0986598  -0.109366  -0.734841
 0.579508 -0.329385 -0.190193
0.0609371  -1.24041 -0.236237
 0.498262  -1.09156 -0.127312
  0.666511   -1.42816 -0.0909136
-0.444111 -0.712172  0.353116
 -0.1168  0.27875 0.545794
-0.851163 -0.604866 -0.151998
-0.642672  0.797854 -0.217995
-0.0442926  -0.737924   0.475608
-0.746629  0.166743  -0.29041
-0.111285  -1.42991 -0.546637
  0.66025 -0.391884  0.445096
-0.301029  -1.02217  0.114545
0.00763728   0.242883  -0.774678
-0.349593  0.182655 -0.630684
-0.488351  0.508439 -0.459324
-0.607315 -0.724095 0.0132737
-0.699121  0.737444 -0.188152
-0.480101  -1.20333 -0.910335
-0.706908  0.659088  0.277846
-0.493227  -1.05961 0.0356639
 0.236584 -0.707715 -0.609189
-0.0128349  -0.519522    0.61465
0.0569221  -1.29759 -0.270222
 0.234301 0.0578039 -0.628546
-0.375424 -0.760936 -0.689948
0.197475 0.868066 0.569686
 -0.10834  -1.09631 -0.695478
-0.42223  1.14225 0.539357
-0.392061 -0.519043  0.482273
 0.224651   -0.3619 -0.708702
-0.544664 -0.444736   0.42663
 0.580012  0.300291 -0.291746
-0.0523382   -1.03406  -0.688416
-0.732219  0.990144 0.0215615
-0.485431  -0.35607  0.477398
    0.5541  -0.688812 -0.0421768
-0.662269   1.17873   0.34492
-0.0872951    -0.5223  -0.724526
-0.788205  0.806963 0.0504546
-0.955524 -0.158706 -0.320278
-0.197191 -0.895498  0.370152
-0.165888  -1.38456 -0.125526
-0.544249  0.289468  0.372372
-0.746307 0.0109112 0.0803863
 0.670244 -0.323388 0.0695653
 -0.978813  -0.262645 -0.0363782
-0.402167  -1.02374 -0.780317
-0.747686  -1.42964 -0.241609
-0.258118  0.810612  0.634457
-0.439432 -0.293096  0.519885
  0.504044 -0.0989677  -0.377455
-0.561208 -0.217281  0.442613
-0.0682816    -1.4305   0.489923
-0.517077  -1.39904  0.111397
 0.104508  -1.08006 -0.288135
0.331582 0.728753 0.194726
 0.425719 -0.819663  0.323049
-0.252935  0.842535 -0.494706
-0.527196   1.30294  0.480994
-0.845367 -0.150018  0.124544
0.0244639 -0.106568  0.658189
-0.648738  -1.05812 -0.192439
-0.264326  0.748652 -0.560063
 0.139125 -0.091368 -0.712245
-0.597066  0.829756 -0.277158
-0.0789087   -1.37845  -0.280903
-0.646674  -1.35937 -0.289978
  0.52725 -0.790022 -0.257213
-0.814043  0.151296 -0.159006
 0.220761 -0.489995  0.579369
0.190943 0.649026 0.379193
  0.11103  0.908727 -0.280542
 0.521184 -0.434995 -0.456745
-0.586087 -0.585605 0.0752179
-0.412487  0.226375  0.496689
-0.439564   -1.3816 -0.233047
-0.649087 -0.853048 -0.151112
  0.321223 -0.0732249   0.636665
-0.138452   0.12746  -0.70322
-0.296373 -0.996971  0.155399
-0.457265 -0.767543  0.224836
0.0833599 -0.200271 -0.752563
 -0.89369 -0.162384 -0.369126
 0.198136 -0.865965 -0.518618
 0.578006 -0.507056 -0.347979
-0.364264  -1.36269 -0.479867
-0.233705   1.36517 0.0500371
-0.353975  -1.16797 0.0903813
 0.291008  0.504979 -0.443253
-0.299674    0.6537  0.600464
 0.661396 0.0504489  0.200492
 0.137627 -0.742541 -0.640838
 -0.965773 -0.0708947  -0.299674
-0.649403 -0.957848 -0.515625
-0.624651   0.89805 -0.207055
0.0121955 -0.929108 -0.595376
 0.408304 -0.781996 -0.459638
-0.247913  -0.57807 -0.708979
0.503719 -1.16607 0.443487
-0.00740022    -1.26093   -0.598331
-0.774068  0.600335  0.026747
-0.200984  -1.26123 -0.781175
-0.766647 -0.582795 -0.347148
0.494499 -1.09784 0.373344
 0.70185 -1.35856 0.108872
0.257351  -1.4305  0.18296
-0.396733  -1.02665 0.0950448
 -0.585028    1.16172 -0.0404568
-0.131316   -1.4305 -0.112403
  0.46647 -0.826186 -0.362628
-0.500334  -1.02954  0.020643
-0.610981  0.731413 -0.257223
 0.155384  -0.77291 -0.620189
-0.706337  0.430066  0.198686
0.205027  1.08074 0.093677
-0.261908  -1.00537  0.156023
0.226391 0.755043  0.59734
0.293822  -1.4305 0.567817
-0.0504352    -1.4305   0.430571
-0.755649 -0.661758 -0.291367
-0.695739  -1.31837 0.0155148
-0.16368  1.05906 0.596188
0.0222523 -0.230569  0.682009
0.0658228   -1.4305 -0.200682
 -0.364999   -1.30068 -0.0670354
 0.397928 -0.539368 -0.567541
0.632347 0.170652 0.105937
-0.403012 -0.828532  0.276654
 0.568973  -1.08481 0.0868709
-0.43863 0.120026 0.595187
0.423502 -1.15444 0.524431
-0.351293  -1.43034 -0.850039
-0.512132 -0.870201 -0.644254
-0.238028  -1.19569 0.0925905
 0.534013   0.12024 -0.023384
0.114088  1.11747 0.219087
-0.733417  0.728646 -0.133859
-0.492288   0.14927  0.559807
-0.564904  -1.36619 -0.242857
 0.443339  0.503187 -0.302436
-0.536434 -0.550261 -0.394469
-0.455705 -0.817028 -0.671113
0.00623848    1.05451  -0.194206
 -0.595147 -0.0304084   0.440408
-0.537401 -0.629308  0.311924
 0.407121 0.0825137  -0.48103
 0.775867 -0.121116  0.347635
-0.755667 -0.244276 -0.391882
-0.412785  0.544476 -0.564575
-0.728343  0.973254  0.257319
0.447492  0.40716 0.264132
-0.24852 -1.41804 0.388218
 0.102462  -1.28297 -0.239703
-0.587055  -1.39362 -0.645305
 0.313903 -0.336457   0.59121
-0.082887  0.558138 -0.666316
0.355938  -1.4305 0.406287
-0.913288 -0.459425 -0.295012
-0.541699 -0.818793 -0.585658
 0.360253  0.695347 -0.206089
0.556892 0.116135 0.479096
  0.678639   -1.25068 -0.0393241
 0.340483 -0.786746 -0.516525
-0.585925  0.779244 -0.281587
 0.512257  0.328315 0.0695223
   0.180759 0.000581381   -0.632079
0.114657  1.05022  0.37903
 0.372583 -0.877731 -0.426577
 0.175908 -0.616405 -0.698865
 0.37923 0.592391 0.159288
-0.738754  0.722475   0.29012
0.675878  -1.3892 0.330028
-0.384458 -0.273689  0.581817
-0.681829 -0.483176  0.143196
 -0.144657 -0.0382595   -0.68695
 0.170075  -1.06645 -0.300977
-0.840663  -1.39051 -0.549851
-0.618789  -1.05944 -0.623715
 0.62901 -1.42743 0.451549
-0.443651   1.43981  0.523572
-0.215321 -0.366261  0.610095
-0.260264  -1.16974 -0.782181
-0.535465   -1.4305 0.0439902
0.0817491   1.05662  0.428273
 0.251014  0.592768 -0.501587
-0.534456  -1.23975 -0.960263
-0.0716934   0.412391  -0.712977
 -0.57809 -0.912804 -0.618084
-0.187552  -1.36128 -0.168338
-0.255574   -1.3384  0.120083
 0.19882  0.34281 0.463387
-0.533981  0.230648  0.423971
0.200776 0.856016 0.591511
-0.381747  -1.12451 0.0838142
0.662869 -1.30883 0.205213
-0.514238  0.741248 -0.348825
-0.177085   1.37207  0.102741
 -0.776322   -1.31173 -0.0990598
 0.473616 -0.603852 -0.470187
-0.374058 -0.782524  0.347409
 0.220641 -0.801812 -0.574864
0.499225 -1.09165 0.279506
0.0612119   0.41942   0.53869
 -0.91389 -0.494906 -0.270877
0.176685 0.320171 0.459516
0.0837323  -1.42918 -0.423797
-0.332223   1.15029 -0.247538
-0.638104   1.29051  0.376336
-0.301396   -1.3716 -0.682079
 -0.681083    1.07909 0.00228633
 -1.03371 -0.256886 -0.212068
-0.674684 0.0215314  0.406173
 0.452923  0.010311 -0.345355
-0.343028 -0.303537  0.592822
-0.203849  0.248133  0.557944
0.202246 0.534763 0.372864
 0.240914  0.885448 -0.250866
-0.157665  -1.42951 -0.774585
-0.402997  -1.21231 -0.820589
 -0.65409 -0.478809  0.251031
-0.64518 0.238685 0.209675
-0.570191   -1.3045 -0.460725
  0.633272  -0.508956 -0.0163983
 0.559097 -0.157447 -0.156893
 0.706613 -0.468404  0.307402
 -0.654998    1.07368 -0.0474365
-0.248403   1.40873   0.10606
 -0.64253 -0.220399 -0.345234
 -1.02264 -0.132899 -0.107158
  0.17419  0.461778 -0.569386
  0.646482 -0.0350059   0.161576
-0.260566   0.15975 -0.672141
-0.886747 -0.125575 -0.366407
-0.394868  -1.30009 -0.171151
-0.658916  -1.41545  -0.50918
-0.587973 -0.595203  0.154434
-0.690538 -0.533443 0.0645423
-0.395825   1.35304  0.543973
-0.770664  0.868046  0.032102
-0.606895 -0.127558 -0.393908
 0.598783 -0.642842  0.081078
0.120742 -1.37614 0.711443
  0.44488  -1.37127 -0.311098
-0.0519878   -1.43049  -0.637744
 0.377702  -1.01677 -0.275329
  0.263014     1.0349 -0.0757284
-0.573849   1.43583  0.452615
 0.060644   1.02041 -0.178574
-0.691583  -1.17203 -0.105398
 0.304763 -0.266794 -0.675319
-0.408816 -0.125275 -0.469058
 0.538217 -0.112316   -0.1993
-0.391362  0.328501  0.511757
 0.387914   0.50068 -0.350478
0.398601  -1.0716  0.45737
 -0.42014  0.987676 -0.408782
 -0.269605    -1.4305 0.00491996
 0.495723 -0.890898  -0.24699
-0.155394  -1.22668 -0.741105
-0.838481  -1.42835  -0.47754
-0.562662  -1.42195 -0.167501
  0.299936     1.0118 -0.0348325
 -0.56705 -0.969512 0.0142022
-0.235965 -0.666206  0.378049
-0.699837  -1.19251 -0.631269
-0.664506  -1.06159 -0.439724
-0.154987   1.35854  0.386463
-0.765274  0.832575  0.193035
-0.449755  -1.31479 -0.478917
0.457704 -1.25212 0.548471
-0.366789 -0.209845 -0.583097
0.297381 -1.04353 0.519644
-0.0766617   0.512211   0.574684
-0.447342  -1.42148 -0.553809
-0.528832  0.206098  0.476442
-0.842031 -0.543068 -0.331484
-0.535658  -1.43047 -0.255414
-0.316866 -0.632015  0.410591
-0.265668   1.14552 -0.246833
-0.721902  0.642731  0.225332
-0.272004  -1.05695 -0.785786
-0.205317  -1.00577   0.27516
 0.291055 -0.102553 -0.641742
-0.522091  0.959986 -0.261879
-0.312961  -1.23388   -0.8374
0.448444 0.298547 -0.53984
-0.677911  0.228774 -0.313457
-0.120348  -1.43035 -0.391586
-0.630869 -0.939966 -0.561851
-0.0731531   -1.18564  -0.659395
-0.0123343     1.0205   -0.24267
-0.697806  0.221873 0.0607885
-0.723543  0.342537  0.187741
-0.167175  -1.43022 -0.513358
-0.464831   1.07166 -0.241294
-0.664662  0.178058  0.292794
 0.276697 -0.582928  -0.66289
-0.853776 -0.235579 -0.398153
 0.453074 -0.274869  0.623304
 0.406217 -0.558427  0.414403
-0.353328   1.51246  0.234012
 0.402278   0.44066 -0.470254
 -0.14587  -1.39218 -0.228719
  0.524013   -1.13435 -0.0753562
0.361009 0.248722 0.491093
-0.585078   1.31734  0.437134
-0.391792   -1.4305 -0.846944
0.122374 0.327689 0.478056
-0.0358578    -1.4305  -0.450455
-0.660985 -0.364738  0.348951
 0.554708  -0.21925 0.0869438
-0.0365526    1.21628 -0.0117849
-0.224395  0.667426 -0.524844
-0.340401  -1.30032 -0.375194
0.150886 0.981183 0.553378
 0.496322 -0.665745 -0.401948
  0.613416 -0.0819427   0.153245
 -0.251719    1.32063 -0.0213488
 0.141237   0.98968 -0.228727
-0.443242   1.45575  0.173796
0.652711 0.100012 0.377393
-0.285436 -0.664111 -0.688125
-0.731495 -0.693172 -0.120007
-0.66889 0.287657 0.161891
  -0.088259     -1.4305 -0.00418218
-0.484993  -1.38578 -0.952417
-0.163775  -1.34682 -0.294228
-0.479071   1.39976  0.128865
-0.438448  -1.41571 -0.277791
0.0915861  -1.42672 -0.301441
-0.62585  1.13019 0.395939
-0.428262 -0.532792 -0.527636
  0.42516  -0.40373 -0.557335
-0.726081 -0.135732 -0.403153
-0.301069   1.12925 -0.289901
 -0.859404   0.738472 -0.0514577
0.000637667    -1.43047    0.080741
 0.506669 0.0826361 -0.159233
 -0.11101   1.31034 0.0695902
-0.231163  -1.40769  0.439054
-0.747841  -1.19243 -0.227164
-0.541258 -0.978283 -0.716511
-0.113283  0.872876 -0.465631
 0.344517   0.81859 -0.119616
-0.0899924  -0.584081   0.524328
0.0397065   1.20191  0.243457
-0.594169 -0.694636 -0.402398
-0.531216  0.493086 -0.258716
-0.688708  -1.30588 -0.802878
-0.626833  0.861797   0.44536
-0.248273  -1.32761 -0.210973
 0.509935  0.158355 -0.364775
-0.286731   -1.4305 -0.267707
-0.718344  -0.36006  0.280993
-0.592481  0.973404  0.464152
-0.231397 -0.415263  0.584322
-0.552823 -0.917723 -0.644284
-0.536012  -1.41099   -0.6236
  0.59823  -0.64228 0.0784232
 0.376035 -0.625349 -0.596027
-0.368298  0.492425  0.546267
 -0.909102 -0.0788967  -0.325159
 0.290456  -0.37269 -0.672225
 -0.799028 -0.0200739  0.0136284
0.613412 0.227994 0.300235
