-36.4145  59.1073  9.30799
 16.4289 -53.0121   20.392
-41.5951 -16.3166  11.5433
 17.2756 -49.4282  13.9327
-45.1075  71.5497  -22.104
-52.3973   72.589 -19.8459
 19.3266 -45.0084  29.4694
12.7802 17.2764 25.9805
-26.0174 -34.7471  6.56477
-28.1868 -53.4645   21.573
  -45.877   54.3382 -0.445964
-50.3824  72.8657 -32.2797
 17.2858   84.587 -20.8376
26.4639 67.7746 10.1061
-42.1338 -16.8488  10.1224
-10.2601  55.4003 -13.3175
 21.1353 -33.5324  9.93481
-12.9997  88.6591  -18.788
-50.7589  51.1412  -24.756
 13.7429 -21.9938  12.2397
16.8292 26.8056 9.53989
3.08087 28.3036 32.2409
-28.4962  62.5528 -7.80569
 11.4509 -1.08332  19.8476
-5.1027 44.6631 35.3899
24.2788 46.4409 14.9405
-6.22791 -5.78948  50.8719
-58.5474  58.5809 -50.9364
2.95185 3.87865 29.4699
0.0301912   67.8478  -35.3969
 3.19831  55.6062 -18.9547
-34.7907  12.1384  11.2103
-24.4723 -40.6116  12.4702
-28.3402  -29.633   3.1726
 4.94073  83.6721 -17.0678
 28.1122 -53.0896  17.5524
5.14305   46.98  37.288
 59.6286  79.5383 -35.3584
20.4798 38.9982 16.7943
26.2373 46.7423 12.4128
15.9671 20.7614 2.88479
 12.3772 -28.2587  18.6732
-10.6299  38.4168  31.0506
 -11.509  36.5616 -11.6999
 33.501 1.21212 13.7097
-0.869078   53.4121  -15.0944
 -35.9399  -14.2298 -0.731512
1.67705 8.21541 2.43168
-16.0176  16.0632 0.423072
-11.4225  86.8552  14.7773
-26.6347  51.0195  23.3096
-25.0318  54.6077  26.4341
 19.7395  89.2709 -22.1904
-39.1158 0.105089  12.8938
-11.9741  35.2629 -10.2489
 4.06743  55.0485 -13.9786
-31.9261  55.7143  11.9862
   12.49  90.8228 -19.7925
-40.4939  58.9629  5.79057
 44.1198   71.804 -12.0242
 57.9978  75.8542 -39.2196
-22.7457 -9.57949  6.34813
-20.9768  15.9793  24.5302
-26.8166 -10.5903  16.6071
-36.2521 -36.2026  21.8382
 49.0365  50.4751 -8.59123
-61.9437  64.5891 -28.0501
18.8354 78.8375 19.9862
  41.584  69.9226 -16.0426
19.1665 23.7321 14.6386
 26.5735 -51.7868  23.9458
-55.1118  67.5516 -47.7348
 49.4149  86.9382 -30.8381
-0.780131  -5.73428   44.5081
-28.5267   64.186  19.2607
-43.1192  54.9064 -23.1876
 5.54558  30.7035 -7.70602
-37.6547  -49.939 -3.47411
 14.4629 -46.3093  19.6467
 1.20854 -2.91663  45.0617
-16.4364  74.0293  -11.011
 1.22046  22.9121 -5.77745
-54.6588  69.3902  -52.399
-3.11178  60.9587 -44.8355
 13.5936  74.5061 -12.1605
 63.0072  69.6319 -30.4503
-14.5522  80.6788 -21.9218
18.4689  68.513   30.07
 13.5384  88.2618 -25.4503
   11.3704    10.8045 -0.0357658
-14.6864  69.5108 -21.4022
  19.563 -15.6904  19.3982
 -40.788 -45.1668   17.087
-24.9927  74.1282  14.7716
10.8037 84.8224 3.91716
 38.3093  58.5576 -14.4049
 14.1238  93.2995 -26.5337
-26.7341  59.3294 -9.19695
-26.6337  56.0766  24.3817
 57.2137  68.8076 -4.78906
-61.3813  58.7436 -42.9486
-41.4734  67.6603 -25.0936
-1.53516 0.684398  44.6432
14.9735  52.765 33.9508
 14.4351 -10.7442  13.8483
 22.0466  46.0557 -4.08138
 33.8208   53.403 -8.67681
-20.1959  27.4561  19.1646
 47.9568  57.4838 -1.29636
-56.5455  69.9269 -50.1076
 39.6742  64.4036 -8.17318
 11.6245  74.6978 -21.7249
22.9786 43.8202 17.7808
 44.1757  61.9171 -17.6584
5.08312 79.4747 32.2642
 2.56283  83.0069 -21.2386
 15.3808 -20.1067   19.534
 -23.949 -16.3636  9.63531
 52.7598  85.6081 -29.2917
 17.2714 -10.6264  2.68501
  19.329 -9.03319   20.103
-36.3376 -3.74492 -1.34784
-13.7147  81.7685 -6.93658
-26.6108  71.1596 -0.17046
 32.1863 -30.9629   18.036
-22.0714  72.5486  24.0504
  16.883 -52.9772  26.5859
-56.5434  57.4469 -33.1657
6.60991 6.06397 2.57926
 61.5334  75.2422 -26.0051
 13.3253 -5.18494  5.63072
 21.1486 -53.4316  4.74907
 -20.3712   8.54366 -0.263302
-15.5122  18.8901  26.3771
-34.7276 -45.9469  2.03254
 20.2111 -45.5994  9.98918
 18.165 77.8889 7.49763
-18.4292  79.4847  22.1065
-11.5241  58.8383 -13.5691
-30.4871  63.7839  7.85161
-57.4872  54.7328 -29.0826
8.11763 87.1246 5.69359
 27.4178 -51.7086  3.34778
-41.6076 -9.16495  4.08597
-51.6929  60.5724 -34.3286
-13.0664   74.862  31.4549
 19.5106  94.6983 -28.5159
3.94339 84.5611 -9.6295
18.9425 11.8713 23.1107
-60.5674   59.219 -30.0478
19.3235 36.4263 13.6616
-18.208 71.5317 30.1407
24.3711 64.4139 20.9355
 36.3198 -53.7641 -3.08335
 13.8048  41.3598 -11.9651
27.3233  64.951 13.1123
-55.5458  59.3916  -39.495
-26.6659  14.9914  21.8635
-13.9528  84.8572 -18.9311
-1.24769  6.27859  35.2855
  62.194  61.9135 -16.1048
 -8.5651  24.9893 -3.09228
 31.125 9.69996 10.1754
-33.4722 -53.6867  3.77969
12.1088 84.9633 17.8989
 32.6655 -27.2049  21.0357
-53.6072  67.4698 -11.7304
-25.7684 -20.3161  1.56043
-8.22154  88.1907   17.033
53.2119 86.8845 -27.426
-27.9025 -39.8187  22.3927
-29.1387 -2.66133  21.7364
 8.84035  85.6274 -26.4814
-27.382 9.01162 24.7498
 3.69332  34.1613 -8.76984
 24.892 57.3562 21.4033
 23.0128 -20.6474  3.09927
26.1631 57.4301 17.6968
 22.4289 -31.5022  28.8165
 24.8838 -52.8566  14.9076
25.5957  11.536 21.0948
11.2015 35.7306 28.9554
-18.576 81.3118 11.5051
-10.3917  68.0658  -28.082
11.1712 85.8137 13.2776
11.3776   84.85 19.6465
29.7783 2.48273 19.7119
-6.20229  57.6726 -17.8869
-55.3284  73.8018  -30.053
 43.9472  73.2141 -17.9242
-6.28668  65.4821  38.4031
 52.9588  81.2958 -33.5926
 13.2165  67.9017 -14.9416
-24.036 14.6997  3.3907
  30.199 -21.9691   24.048
 15.0271 -52.0632  18.2248
-45.9888  69.4737 -31.6464
 20.2904 -47.2742   5.0641
 36.5308  47.4912 -8.43457
 21.1891  46.4177 -6.21522
3.15882 4.44832 32.1598
-9.85408  42.8563  35.3616
-46.2311 -46.1297  12.3818
  13.411 -49.7455  29.8922
   27.26 -49.6542  3.81472
 8.87426  67.6097 -27.5701
-33.3918  -12.894  16.1844
-20.9834  1.71119  25.0637
-29.7292 -20.0594  21.2577
-24.5415  21.5391    15.05
 26.6739 -6.69871 -2.61251
15.7096 39.1953 28.3144
-8.65925  86.4941 -8.15409
 25.7191   66.204 0.343857
51.5411 65.5982 -2.5682
 3.5993 77.7872 33.8943
-12.3933  64.0993 -24.3047
 57.1106  81.1841 -33.5801
-44.4785 -45.2729  6.74807
 57.9788  55.4905 -8.60193
-5.41514  33.3587 -8.56041
-39.0763  65.7015  -17.583
-13.5821   65.782 -22.1285
42.9703 51.9643 -17.938
 20.3949   96.228 -24.2591
 27.5089 -43.4992   23.511
-33.1829 -2.62403   19.819
-18.4362  28.2465  23.9429
-28.9983 -14.1721  1.08295
 32.7465 -18.1433  8.76067
0.708722 -1.99678  32.9587
-25.2129 -23.9431  19.9445
-23.1323 -36.0923  17.0467
-18.9704  37.8807 -5.17306
-21.8552 -20.1604  10.2942
-13.6273  27.3713 0.226462
-33.1173 -43.4262  22.0928
  59.678  57.7554 -7.86806
 32.5843 -30.4685  16.9076
-18.7808  87.3411 -23.9809
-47.8816  50.3012 -4.77564
-23.5742  67.4695 -8.77408
 12.5285 -31.5226  18.0377
21.6122 44.2424 22.9743
 32.9473 -22.1263  15.0379
 25.1064  46.0996 -1.75826
-52.6946 -48.7408  4.20041
-58.7826  75.6003 -40.3425
 18.2992 -45.4879  29.9338
-0.213822   4.32055   24.1387
-18.0074  69.7967  30.9441
21.9316 15.6669 4.89311
 46.5633   60.102 -0.81353
7.40523 16.0522 28.1667
-30.5811 -19.1978  0.54112
-2.74206  2.71334   27.929
14.3489 55.1239 35.1436
-28.9396  66.7154  6.33566
-49.1084 -52.9327 0.861768
17.1229 49.3997 31.9805
-8.94358  22.0871  30.5775
  10.8084   18.2323 -0.560194
 27.9119 -43.5272   14.789
-39.4376 -49.2322 -5.00598
-31.0921 -51.9979  6.22425
-15.0101  61.8604  36.3779
 15.6629  91.0954 -26.7399
-31.4823  16.2772  13.8554
 13.9942 -24.2215  20.7074
8.99981  84.014 -27.149
-40.9746   65.442 -11.6683
-48.0037 -52.9951  6.89379
-33.9722   12.984  9.42495
 16.358 53.9891 -10.752
-27.9388  15.0976  6.32793
-23.9375  51.8739 -9.53083
19.9613 38.5684 2.48365
 -39.059 -53.0702  5.13971
-17.0854  56.3876   35.711
  10.095  65.7961 -17.0043
-26.7929 -12.5496  15.0741
 28.5569  61.7956 -3.91961
 27.1509 -40.5865  15.3242
-44.4586  59.4147 -25.6405
 26.2372 -7.69921 -2.35416
-7.11237  27.3347 -5.86687
-35.6309 -50.2875  22.6135
-21.5173 -32.3356  12.7596
 -27.0878   45.9942 -0.203525
-15.2289  71.2128  32.4618
17.9217 32.8902 8.42188
 26.9836 -30.2637  6.27709
 6.6258 59.1241 38.4615
 -34.1239  -18.7498 -0.716258
-17.394 51.2035 34.7893
  6.0227  35.3629 -9.60115
-14.6297  73.8044 -17.0001
9.22716 29.4749 31.1162
-21.128 63.1264  -13.81
 -13.387  88.4112 -30.6266
 -0.880972 -0.0492521    29.4802
 53.8242  78.2554 -33.5627
-31.3236 -14.4108  17.6576
-29.7635  58.5202   15.479
16.3017 -23.124 23.2789
-62.2857  65.5275 -42.6114
 7.44419  33.0923 -6.26542
-54.0273  53.2434 -28.3895
 8.06615  82.3055 -12.9583
-33.0363  46.1818 -4.83937
  51.292  82.5078 -31.9407
-11.8317  16.0191  27.4124
-0.723761    15.893   30.0456
-4.6986 5.27398 25.9274
-15.6935   89.303 -20.5161
  5.97434   13.0435 -0.311618
-17.3786  82.4356  9.55822
8.51494  2.4394 19.0684
 10.1914  78.8125 -23.5361
-1.43716  87.6305  21.5831
18.2075 79.6102 12.0368
 12.8066 -32.0325  15.5867
-62.6299   64.489 -40.3096
-30.2136  -3.1567 -2.34724
-35.2144 -42.0877  21.3799
 35.4845  57.6623 -8.22342
 -5.45524 -0.558207   42.7312
 59.3094  68.5417 -35.1231
-24.1218  67.3443  25.9398
 17.5302  76.7064 -2.25044
-6.06256  48.3592 -14.0106
33.3313 54.5554 13.9433
 34.6715 -5.01908  9.72687
 32.9918 -16.9444  7.44945
 34.8621 -1.06236  7.30114
-26.0904 -49.8868   13.812
19.7273 61.2204 30.5469
32.8746 -52.644 7.97798
-42.2983  60.0462  -22.537
-27.8703  69.6588  1.22387
16.1951 50.7732 32.7414
-48.5914  61.6545 -6.85853
-20.6562  62.5507 -14.0389
 55.5621  77.1139 -36.6658
-31.2626  15.3464  17.6336
-13.1125  84.5487 -5.39618
28.6288 13.5508  9.2204
 16.0988 -5.08739 0.684362
-33.2298 -29.9669   4.0165
 24.436 70.2507 2.44332
  -50.48  75.0673 -39.2205
-39.2541  66.0568 -8.17241
 -37.9004 -0.821465   15.5203
-21.419 93.0137 -27.101
39.1747 52.3706  8.4918
 27.2264 -49.1692 -1.51197
  19.012  92.7193 -24.7318
 33.1422 -25.0313  11.7738
 25.3586 -28.1362  27.8857
 18.9293  11.0073 0.540512
-28.0404  50.5598  19.2096
-8.77505  17.0158  28.8728
-36.5317 -39.1318  8.29347
11.6453 28.6379 29.3536
-25.8728  67.1557   24.015
15.3147 26.6494 24.9219
-43.3274  62.2806 0.101841
 3.09046  67.8186 -34.2721
-26.7408  5.52523  25.3724
-27.4359  70.9894  16.0363
 52.4831  85.4329 -29.5513
 5.47368  87.7543 -2.35526
-33.977 10.6672 19.5946
-4.75452  5.54011   25.591
 57.0159  73.0955 -12.0989
-59.5698  63.4838  -13.716
-3.16586  34.1102  32.9113
 17.9501  87.0598 -21.5456
 13.4544 -26.1749  20.7401
-22.2048  63.9184 -12.6036
-47.2383 -48.4908  5.18272
-11.2368  86.0651  2.10588
-22.7217  59.9536  31.0637
 17.4201 -29.0879  7.78466
40.5248 67.1988 -11.061
 4.28158  55.9579 -33.4845
-10.7204  18.7585 -1.15032
 20.8647  51.7169 -7.94102
 5.69675  88.2003 -5.92682
-24.7385 -16.5137  6.83615
-16.6759  15.8823 0.487593
-39.9849 -36.7981  11.8375
-34.1555 -53.1318  9.06761
 14.2624 -22.6162   10.085
-24.4986  10.7719 0.267892
  20.681 -47.3888  4.47434
12.7385 49.9748 -13.278
-12.3631  50.0758   36.224
-8.03314  48.2982  37.4971
-47.7312  62.1482  -31.138
-49.4715  50.3198 -20.5897
-22.6422 -37.8201  15.5764
 -14.1363   29.5575 -0.385006
-13.7503  23.8923  28.5505
-11.9332   92.815 -22.0839
  -10.642 -0.655617   13.2679
-18.8826  69.2161 -12.2333
 5.78261  63.9365 -33.4941
-3.65906  84.2392  -21.246
-30.7518  64.1047  7.16781
-28.6744   17.288  13.1355
19.4571 22.9334 15.5337
 44.8898  71.5359 -18.8573
     30 -50.174 1.79054
10.7753 83.3071 23.0529
-35.8479  10.2331  8.63305
-21.4251 -21.7705  6.66853
-36.3378 -52.7317  21.2997
 57.0403  63.2484 -3.46263
-0.862605   60.2924   38.8425
 2.49195  40.4487 -13.1223
-4.12812  84.4921  27.3067
-24.2155 -13.5725  9.57268
-43.1885  70.6049 -23.1631
 23.7069 0.325116 -2.57981
 26.5862 -25.4987  27.1122
-61.5955  65.7476 -28.3675
 41.283 55.4363 6.72037
12.7625 82.3866  21.031
-14.1061  70.9611  33.1666
-14.0897  83.5229   19.814
-13.8969  81.1174  25.5463
 24.0646 -34.1463   29.464
 16.8072  94.8766 -22.7792
-34.6148 -35.3277  6.16876
-23.004 53.4856 28.2702
-4.53626  19.4467 -4.99582
-5.38558 -4.06788  42.5943
-56.2053  75.5252 -49.8216
-7.60022  79.9712 -25.8098
-3.03087  21.4656 -5.74826
-4.16697  53.0696 -13.8236
-5.4722 5.88229 31.3952
-7.60697  14.8028   29.147
-21.2829  26.6184  13.6997
-26.0348  70.9914  18.4026
21.2388  39.592 15.2316
-18.5198  38.6307  24.1045
  25.3336    45.663 -0.714431
-43.9207  51.2534  0.17065
-5.5456 30.2678 -8.5223
-48.5967  59.3969   -2.094
-8.99674  58.4527  37.9967
27.0852 15.4557 9.86943
 11.9985  40.1979 -12.4424
39.5509 55.8815 -16.907
18.5634 30.7716 17.2805
-22.5818 -10.4483  14.7583
 -38.093 -52.9025  15.1798
-58.4229  54.5387 -25.3954
48.9391 68.2745 -23.078
-22.8277  38.5629  11.6369
-55.5212  72.3458 -21.0661
 10.3241  63.3571 -23.3602
-23.2576 -38.1653  17.2711
13.1608 1.57474 23.0022
 57.2149  70.7644 -36.5868
 60.0195  70.9653 -16.1867
-3.0204 23.5284 31.6855
4.02139 55.7948 -40.926
-55.9632  68.5415 -14.4018
 25.8088  61.8683 -4.48944
52.8248   87.51 -27.918
25.5653 70.0122 11.9384
-19.3735  40.8807   28.633
 7.58529  85.5371 -18.3993
28.0362 14.3127 13.7272
 8.93346  61.1739 -14.1999
 32.6047 -6.76618 0.863692
6.10245 22.9725 31.1867
31.9334 64.3748 8.21831
19.6316 4.63148 -1.6492
0.63326 43.0671 34.5191
 17.5295 -17.1382   7.7203
32.5513  58.462 13.7453
-22.4247  49.6376 -10.8335
  26.7876   5.19967 -0.140016
-57.9185  59.0031 -49.1002
-10.3723  71.6969 -26.8996
 23.657 -15.772 20.1034
58.0685  82.753 -28.223
-53.0036  71.0193 -44.7372
 -46.504  71.6019 -30.4969
-16.0615  84.1053  15.9627
28.0459 3.60085 21.6123
-26.6062  42.8795  16.4456
-12.8593  21.3029  -1.1172
-5.08375 -1.45491  34.8096
 -24.2031 -0.786198  -1.72399
 13.0384  48.1209 -13.3246
 -34.7957 -0.131485   19.1837
 21.2836 -42.5191  13.0172
-25.8497 -16.6676  3.93797
 19.1328  51.3544 -10.2584
-10.486 49.9809 37.2396
 6.28395  59.4333 -19.2217
-1.75623  53.2907 -34.7458
 -16.9469 0.0458961   1.58509
 1.53662  64.0665 -40.2629
0.212111  30.6103 -9.27518
-29.1287  66.5576  8.85949
24.6579  71.192 14.5825
 52.7759  80.3613 -19.3218
  12.1761   17.7417 -0.126408
 15.1259  88.2112 -18.4505
-34.2607  10.7427  5.54582
-21.2521  24.4807  9.90134
0.934261  5.11987  12.2529
-38.8592 -33.2857  20.1759
   8.1485   14.2814 -0.518984
25.1683  62.269 21.9094
17.5579    48.4 31.2131
-29.9953  4.65102  23.8346
-53.1286  57.8608 -10.2675
-27.4094  44.6563  13.9933
22.3075 49.3437 24.8646
-20.6996  31.6265  12.8346
 12.7717  88.8409 -28.4746
-3.85744  38.3831  33.4175
-13.0545  69.6937  34.7026
-21.1779  67.8244 -11.0169
 42.3221  46.8708 -1.61609
-43.9343  49.8413 -2.83746
-49.8768 -49.6932  4.34004
-5.40901  57.6611 -42.9697
32.3046 6.61497 14.8241
2.99414 17.8506  29.687
7.88712 3.90077 22.2256
-32.1262   3.5714  22.3188
22.3529  66.804 24.6609
 -30.8404 -0.970448  -2.60686
-7.19158  86.4755  -17.249
 20.6528  95.4654 -28.0338
-40.3405  -49.689  18.1563
-39.7278  64.4588  1.41521
 20.809 76.3921  16.753
-30.1586 -39.1201   7.3844
1.86716 67.2513 37.9477
  38.319   60.552 -12.1939
6.03295 85.8829  22.706
-35.5506   45.922 -0.44132
-39.7385 -4.23225  1.93221
-25.4202  73.5835  13.8669
-61.6501  65.9844 -27.7944
 29.6389 -34.6626  13.7242
-42.7533 -52.9518  16.0545
-14.3951 -3.50919  17.2555
29.0509 -12.635 16.7728
-54.8412  52.2249 -24.0759
-48.7905  52.6147 -27.8037
-40.3183 0.730193  9.00649
-13.3299  74.3758  31.9534
-3.60348  71.9173 -32.3679
 22.8619 -53.1202  27.9582
-7.07237   32.719  32.5313
 12.4637 -30.5775  15.5232
 15.8546 -40.5583  18.1308
3.53706  89.153 2.58164
 -45.013  66.5444 -27.4751
-2.40044 -5.19572  36.7433
 57.7368  64.4738 -4.14068
-14.6879  49.1174  35.6934
15.2723  61.179 34.8635
-22.6098  22.4116  8.19036
-16.1904  64.8886 -14.7262
 51.6689  85.3016 -30.3241
-59.5506  58.5237 -39.8999
-35.3891  48.1754  7.08796
-33.9587 -25.5839  23.0065
 32.5891 -25.9514  9.55892
 -8.47701   13.0911 -0.546024
6.47741 2.58085 16.4903
 33.5493 -52.2338  8.17504
-36.4155  -38.209  7.37816
0.531037  40.7227 -11.5449
-62.0665  67.0667 -23.5516
 28.4902 -44.4008  20.7409
-11.6415  85.2283 -24.2946
-39.6604  65.8103 -18.8767
 48.9296  78.2242 -21.8403
  31.12 44.4229 4.04933
-59.1151  76.5874 -38.2731
-36.0988  4.30959 0.515738
-5.99587   54.829 -29.4772
 33.4227  45.8083 -3.89054
-15.5515  20.9475  25.9183
-51.2994  54.1888 -30.9572
2.78128 21.4267 31.1378
 10.2453  80.5416 -27.2146
 32.894 -49.721 7.29258
 4.09598  87.7688 -2.86802
-7.59718  60.8787 -22.4114
-23.6015    46.18  25.4814
 52.0097  83.4683 -35.1502
-38.8821 -9.85541 -2.86971
 4.72952  17.8228 -1.91691
20.6943 22.0273  10.606
-9.47439  90.2994 -20.7657
 9.55384  61.2505 -13.4336
-19.1793  62.1547  33.5932
-37.8508 -44.5328  19.9393
-30.6132   64.254  7.01835
-22.7346 -25.8201  4.64942
15.1533  74.767  29.725
 20.2173 -38.4122  13.3874
-38.5068  -30.712  6.34004
 22.5697 -28.5563  6.51857
-17.9535 -7.13595  15.4162
-2.79517  6.79724  17.6288
0.21737 5.73893 7.83812
-23.5499  75.7151  17.6048
 -45.3564  -52.7206 -0.753944
12.5106  -50.88 27.2158
-40.8565 -29.2402  8.05198
 17.6357 -49.4185   12.937
-58.3855  65.0703 -12.3315
-34.7659  60.9309 -13.0426
 6.51695  57.4713 -36.0478
-23.6385  58.0553  29.4376
-11.2858  9.82391  25.6911
 7.87224  76.9087 -26.9134
31.3976 63.3751 10.3576
 24.221 -34.831 10.7496
-31.3739 -41.4739  8.54908
-60.5626  70.3636 -21.2089
-34.5887  10.5177   5.8156
-1.92715  89.6911  4.76893
-3.87962  6.34927   20.607
25.9248 16.1534 12.8095
  -47.28 -53.4898 0.211747
 59.0287  59.2541 -21.6294
18.4011 66.4273 30.2239
-14.6713  92.0273 -20.7912
-45.2095   51.253 -23.5519
33.8836 45.8219 -5.2975
61.0774 61.9517 -8.0984
-6.7482 4.01081 16.2042
30.7144 55.1167 15.0466
 14.5598 -2.91022  21.1068
-26.6634 -14.8284  3.49737
 14.539 47.9332 32.9477
-21.0986 -25.5114  7.60799
-18.5628  40.6159  27.2476
6.41514 2.73196 17.4234
17.1243 76.1177 2.37865
-1.53952  61.6758 -44.2465
 9.02192  44.6862 -14.3878
 -9.7969  78.5904 -26.1569
12.2815 85.6518 12.0569
1.72875 50.8905 38.2279
-4.37977  73.8188 -30.3674
-41.5054 -26.5139  12.8789
 30.0635  51.9904 -7.06656
-24.8813 -7.70783  1.40695
-19.7959  34.1274  3.54093
-15.1555  74.8688 -12.6138
-37.2029 -43.4369  19.8662
 11.4252  66.5556 -11.4864
-22.2763  94.4637 -28.9073
-63.0239  60.7415 -23.5029
-61.2224  69.4949 -35.5223
4.00303 19.0354 30.4539
-60.1835  63.2511 -48.6973
-20.6484  78.2349  8.14137
19.6353 23.3086 10.6955
-5.39351  1.09489  38.6162
-27.0376  18.8512  14.3583
-18.6582  2.30809  24.2386
-33.2687  65.8189  2.19226
-62.0187  60.1775 -25.5674
-8.26531  60.0249 -35.3313
 50.4093  51.0346 -17.3745
 5.56629  51.8212 -11.8841
-31.1929  5.78376  23.0383
 26.6969 -40.7089  25.9044
-20.4847  35.6196  13.1408
 13.5785 -22.5348  17.3348
1.50167 58.3994 -47.492
-39.4833 -24.0843  19.9281
-46.6023  50.0783 -16.0795
-40.0931 -42.0471  11.7317
23.5297 63.7082 24.2259
 31.8062 -13.6861  12.3399
 35.0868 -2.13052  6.67962
 17.1265  84.2454 -19.5245
 29.7563 -46.8787  5.06989
 -54.567  61.2519 -10.8431
 -15.181 -5.56748  12.7062
 9.64438   72.375 -26.3498
 54.0572  75.9831 -16.6565
-23.3031  67.2717 -9.09413
5.99475 19.6311 30.2315
-12.475 81.5899  26.536
20.2038 39.5304 24.4936
-3.03994  6.87607  14.3439
 2.72987  13.3825 -1.60915
-20.8097  71.3613  27.2849
 15.8548  38.3079 -7.84954
-17.1047  81.9335  7.88815
-62.622 63.5142 -41.893
-35.8362  10.3277  10.1177
-6.74288  7.81261  24.8387
 22.3119  58.4222 -8.29778
-28.1584 -34.3937  22.5446
 7.51403  86.2172 -22.2745
-44.1705 -45.6242  4.72551
-20.3942  30.6735  16.1901
-30.3345 -53.1954  9.01416
11.2683 6.87389 25.2745
-45.8832   72.561 -28.4328
 6.53748  59.7498 -18.2414
 56.6086  83.0784 -25.9484
-27.3996 0.767607 -2.18201
-39.0095 -20.5147  19.9338
-20.9417  77.0632  7.53485
 49.3718  64.2478 -2.58933
-56.3417  68.5826 -14.8602
 -18.1145   35.2106 -0.767111
 14.7504  81.7796 -20.7696
-40.6882 -10.9058 -1.91343
-60.1316  57.0024 -28.2833
19.2938 50.4471 30.0084
 23.6656  61.9341 -5.53976
27.1917 51.5659 16.0619
21.9797 2.84214 24.6714
 27.0534 -52.7011 -4.04751
 48.0171  75.0492 -19.5427
-8.43047  86.1257 -8.33667
-0.80124  19.7237  -5.8027
-54.7389  71.2208 -48.6542
 15.1094  67.7638 -14.6629
-22.6191  71.8131 -3.33819
-8.9045 1.64837 15.4741
 25.0906 -40.9988  27.3066
  28.2645   -51.672 -0.620248
-39.5396  66.0993 -8.17523
5.70353 82.2955 28.9259
-21.6178  52.3616  30.1467
-23.7278  16.4714  22.9127
17.6824 14.0675 1.79567
-0.0629271    5.56165     35.596
-41.3092 -18.0538  14.6683
-26.4227  16.5842  7.96401
-14.6993  36.0692 -9.30102
-7.32057  55.6517  38.7767
-22.4469 -50.7145  20.2978
-16.3491  91.2267 -21.2927
  43.425  51.0483 -16.4938
-21.5041  14.0249   1.6753
26.3727 9.16196 22.4249
-26.8287  45.2895  16.1366
 29.1364 -24.1288  4.15257
 12.2416  67.4552 -23.3435
  -47.25 -48.9441  4.40876
13.9428 -29.276 22.7439
 -2.4579 -2.14545  32.8425
-19.629 65.6402 31.7526
  2.3292  63.6698 -41.1628
16.4914 18.4135 23.6995
-2.7621 5.60734 7.51049
 -27.5256  -8.14001 -0.829754
  59.182  73.5405 -20.3481
22.3092  -15.83 20.2638
 32.4561 -31.5424  18.9083
 26.5313 -16.3144  19.8733
-28.2874 -47.4256  9.77776
 18.7344  3.45438 -1.73752
60.2053 57.9845 -12.722
25.5186 67.0119 1.64049
-45.2544  59.4675 -26.9041
 49.5958  70.1752 -23.3575
-40.4379 -34.1301  16.6517
-55.4282  62.4257 -45.5116
-24.4291  5.51422 -1.72689
 -7.8898  88.9756 0.137009
 2.85113  35.4287 -9.02371
-33.8782  46.9786 -7.42272
 23.1508  61.9438 -6.36585
 44.6437  49.6874 -15.2825
17.5635 68.0188 30.8431
-42.6292  69.3808 -16.9241
-24.4733  46.4179 -5.23894
1.96426 89.7093 13.7463
 28.1174 -8.73984  17.8494
 52.4448  51.8654 -17.9624
-28.4527  17.1162   16.689
 22.4938 -14.2679 0.613556
  49.337  65.5698 -24.1231
 61.5264  67.8025 -25.6396
-57.9206  54.7457 -21.9206
 59.6944  70.9266 -13.8133
-56.7501   73.017 -23.2776
23.6585 10.2851  23.328
-0.304191  -0.58691   46.0855
 30.0905 -14.4009  15.8685
-19.5559  40.2175 -8.46577
41.7518 59.7469 -15.299
-17.2283  86.6854 -23.6978
-18.8465  53.1894  34.1146
-4.99966  36.3655 -8.62417
-12.0658  91.8202 -29.5264
 34.6015 -46.7273  12.1305
-27.6848  -25.798  2.05718
-30.453 48.3682 10.1763
-3.3368 78.9583 33.5534
 12.7656 -30.8914  20.4562
-30.5611 -13.1224 0.142406
-26.0422  73.8283  12.2168
-7.59014  61.3379 -29.1614
 32.2014 -27.1991   13.908
 54.5568  81.0173 -34.2256
-12.0242  82.4114 -22.3927
-61.4926  67.0644 -26.5394
-47.3067  54.1014 -28.3362
-55.9897  76.8806  -42.915
-21.5327 -31.5932  11.0947
 18.9605 -12.6915  2.29061
 58.3722  71.5988 -9.76783
 25.6293 -41.9128  14.5118
  -44.69  71.1213 -20.0896
  11.58 10.5973 26.4233
-58.7374  55.7329 -15.1065
-24.8134 -28.9908  20.3299
-53.6745  63.9117 -10.6677
 50.4792  58.3563 -25.8433
-26.5996 -43.7236  21.7931
 15.0531  57.2063 -10.3511
23.3305 17.8885  10.523
 15.7068 -13.5428  11.5097
 -17.0547 -0.248822   2.18202
-52.5292   64.332 -38.4392
-33.6767 -50.6192 0.656729
-28.7696 -24.5298  21.9406
-24.6312  75.0252  16.4209
-15.9888   73.156  30.2639
 28.2072 -23.7432  25.7415
-4.03678 0.676192  44.0062
 11.6508  40.8928 -12.9032
-43.3031  48.7438 -5.32598
-41.2217 -53.3227 -5.55149
-26.5981   18.142  10.9658
  43.6463   48.6527 -0.989321
 34.7674  55.1705 -8.67285
 58.4818   74.427 -19.5811
 12.9946  82.3582 -4.99275
 36.4497  52.2879 -9.55201
-30.0094 -41.0861  22.7998
-17.063 11.2082 26.1851
-39.7038 -38.5237  16.6913
 25.4713 -53.0375  3.50512
23.6699 70.3072 1.04284
-14.4685  77.1668 -9.43341
-50.5201 -47.8922  6.63194
 33.7941 -9.38038  4.84442
 1.25904  17.3662 -4.19037
17.5907 56.0907 32.1399
19.5899 54.3622 -9.1674
 13.4353  92.3834 -21.0449
-23.1333  42.3158 -4.20032
10.0173  41.994 33.4098
 18.8968 -48.3187  10.1118
 55.4918   53.764 -15.9743
 18.5159 -34.0862  10.4149
 -44.214   50.971 -14.6329
 16.5513 -2.61914  22.5406
-13.9768   48.009  35.6496
-9.11793   55.729  38.4528
 51.7484  86.4869 -33.2036
-14.7598  82.6977 0.856411
 17.0511   65.056 -12.2069
41.3555  52.324 6.37197
33.9639 3.80938  10.802
-33.8256 -9.34762  16.0523
 18.7585  74.7633 -3.32513
24.7081 43.5528 6.01778
23.6113 68.4452 22.5991
 30.4829 -45.1338  11.5456
-61.2943   59.912 -28.6144
 6.75343  59.9614 -42.6916
-18.7261  24.4785  22.9166
-37.1084  60.5917  8.09468
 31.5882 -46.9909  7.90562
-13.5564  37.6218  29.0699
-0.60437  36.4329  32.6617
 13.0268 -52.4008  28.0468
-5.92354  70.0638  36.4532
 16.4059 -41.3166  17.9042
-15.4168  79.7179   24.523
 16.6738 -12.0911  5.63576
-31.4288 -2.76036 -2.53816
 7.60437  86.0074 -23.3934
 18.967 38.3275 19.9908
-37.4469    2.835  16.1652
18.9548 64.8887  30.337
-28.4199 -17.4073  19.3167
 -2.923 6.79374 13.0673
  45.3178    61.209 -0.640454
 14.4955 -10.2055  8.78309
-16.7382  78.6439 -6.34701
 -14.955  20.1352 0.415193
  16.737 -39.9428  28.0647
28.8605 8.37658 2.86683
-26.3889 -53.5762  15.6982
   32.051  -15.0741 -0.947266
-24.8544  69.8095  22.6234
  27.594 -44.5015  8.71513
-49.6645 -47.6607  6.76859
-42.0214 -14.3034  8.56115
-26.3016  68.5585 -3.32871
50.9219 82.7544 -28.986
 14.8845 -49.2144  17.9397
-24.1606  73.3844  4.45944
   34.5094 -0.0575799    11.2347
 59.5704   75.928 -37.1545
-24.9951 -53.6561  20.5728
-16.7662  41.2158  31.5989
3.60982 6.19075 23.3533
-15.2619  59.4451  36.4637
17.8831 -49.519 12.0342
-39.3878 -41.3075  17.3899
-62.4642   65.559 -35.9804
0.327987  61.6094 -46.2417
 7.86854  34.0274 -8.13056
-10.9128  4.50637  6.37835
0.846018  65.8447  38.6164
-21.9102  -33.969  13.8606
 56.0619  60.9505 -26.1014
-56.1627   69.059  -16.123
 10.2571  87.5143 -27.0823
 11.2677  82.6408 -27.7772
 1.05893  52.7159 -26.8797
0.287429  57.9862 -46.3734
-54.8202  73.7795 -24.0977
13.2752 68.1952 34.5341
 23.1166 -44.8106  5.99981
-30.4075 -29.1357  2.79183
-21.3997 -30.1016  14.2112
-8.13686  12.5438  28.3585
 57.5982  64.9521 -26.8902
 -32.15 -53.118 13.8007
-25.3521  -53.419  17.2476
-31.6208 -39.4786  7.35228
21.0244 60.0771 29.4148
 25.7357 -38.2171  28.5804
-4.74922  6.74182  18.7579
-19.5458  4.58299  25.5725
 29.3899 -12.4274   16.289
 20.1863 -16.3416  20.1982
 -56.473  58.9653 -40.1344
  29.0721  -17.2238 -0.801728
19.7973 10.5705 23.6903
 1.04749   51.298 -30.7677
 10.5469  83.4986 -25.4742
23.1625 41.1875 9.98663
 15.9548 -28.4613  8.38182
 28.8923 -26.9712  5.66266
 26.8615 -17.6626  22.3013
 13.6009  88.4264 -25.8851
29.8364 64.5242  1.1111
-56.0784   59.952 -44.8753
 -55.559  67.4926 -48.3225
12.4621 20.4724 25.4742
-4.59748  41.7908 -13.6975
-23.6144  44.7939 -5.91616
-0.875439   8.68337   33.1147
41.1912 48.2513 4.32939
-9.45963  11.8287 0.594131
 59.0634  80.3302 -30.2957
-8.40666  83.8875 -14.2625
6.65396 2.60164 9.26776
   8.2834 -0.389786   15.1255
-40.8015 -43.4572  15.7496
 33.8833 -14.2379   4.8139
 -4.9706 -1.33488  50.1001
-16.8178  40.7671 -12.0226
-9.78585  81.9029  27.9784
15.9409 19.8454 23.8266
-11.4455  29.0498  30.3595
-23.7127  22.3228   12.773
-31.2753  -21.927  1.32334
-11.5632  84.1954  22.4051
-24.4786  41.6389  1.25542
-27.2113   48.387  16.1247
-5.95148 -4.74892  48.7915
2.94636 81.4001 30.8287
-47.8232   67.442 -10.6272
13.4668 50.5579 34.4882
-37.1022  53.6794 -14.9434
 -30.224  2.86481 -2.06129
  -27.07 -47.5299  25.1661
-0.644938   15.2951  -4.19989
-57.6141  58.6341 -35.8219
-53.4181  51.1059 -19.6562
17.8234 33.2262  19.878
-20.7716 -3.96454  1.01096
-58.1259  62.6514 -50.8169
-18.8475  44.1578  30.0643
33.5216 45.6795 7.55577
 7.06655  83.2268 -7.61274
-36.8744  62.8791 -14.2095
3.39001 88.6053 17.3769
15.6862 81.1716 7.87241
45.6265 53.7159 3.43495
 -62.262  64.5199 -42.4935
-26.3388 -18.9688  19.1211
18.6556 -28.207 7.12849
  -60.61  70.7833 -34.1078
 46.1704  57.9411 -20.2555
-25.6799 -4.40116 -1.37414
-56.2338  53.4005 -27.0559
33.1706 -23.029 18.9055
 -29.091  47.8106 -6.33038
-51.0793  76.8553 -40.9582
-25.2345 -13.7936  12.6496
-12.1803  3.36282  5.97938
-36.4965  48.9205  7.25069
 49.5654  85.3717 -25.2354
15.0127 81.9974 20.5485
  20.789 -6.55103  21.3486
 50.2659  68.9287 -24.1874
-9.58684   82.506 -14.7996
-33.2342  8.98126  1.89084
  11.5041   17.6535 -0.350047
-26.5876 -18.3776  18.9244
 22.2538 -32.0767  9.13446
 29.9009 -38.9835   18.578
-0.992218   86.3057   24.6764
-31.8275   11.485  3.54192
 3.19816  55.3046 -14.9019
-32.0964  60.6088 -10.9647
7.89731 29.8301 31.5566
-21.933 23.4249 18.4683
-48.0831 -48.2935  1.52586
 -57.956  78.2426 -39.8877
 29.6411 -15.9683 -1.43282
 51.6431   84.008 -35.8301
 28.4341 -20.0198  1.62659
-53.9517  72.9379 -21.6882
 54.2163   81.354 -34.1256
-13.0123 -2.69021  11.5812
-10.1343  28.5696 -3.03998
-25.8436  56.1386 -9.56577
 28.2904 -43.5384  21.8055
7.19363 16.7259 28.4847
  16.212 -7.74623  19.2039
-40.8266  -53.675   1.6238
7.85999 88.1504 12.8814
 8.11155  27.0968 -1.60931
-21.6768  13.3683  24.6399
-35.7675 -12.4646 -1.65486
-20.6705   78.746  13.6969
-20.3829  76.3114  4.79304
61.1564 65.1571 -21.569
-50.9636  72.3439 -19.3876
 12.7424 -32.2823  18.0654
 23.2603 -49.5168  28.3394
-18.7673 -8.15745  10.0184
39.9376 47.6557 4.09744
-33.6072 -52.9954  12.5124
 1.28489 -4.55019  41.2793
-1.73853  78.0399  34.2677
-3.87231 -5.91457  42.9429
-21.6935  93.9297 -27.2601
-61.2857  63.4668 -16.4098
  60.369  70.1863 -37.0629
17.3193 34.8892 21.8724
-9.82645  1.36528   12.371
16.8556 43.0653 28.3271
60.1035 62.4813 -23.089
-14.2181  85.0857  6.49022
-23.0738  42.0683  25.1895
 12.5177 -51.8058   25.433
-22.0247  56.2023  30.5978
-7.26662  58.1308 -28.0472
-28.3184 -3.61025 -2.31037
-27.6844  45.0381  6.83187
-3.37589  71.0594  37.2892
-9.68706    8.161  2.47108
-60.2383  56.2265 -16.7804
18.9343 28.7361  12.222
13.6733 25.3167 27.0805
-40.6743  55.4088 -22.8605
 29.0058 -5.47503 -2.03125
0.0120967   19.6349   -5.7342
-3.16652  86.5024 -9.15829
  50.873  51.0341 -9.15111
-0.899735   3.06272   39.3085
-17.0824  26.5903  25.6056
21.6927 40.0719 8.94083
 13.8751  81.5876 -1.00796
-6.31039 -3.75341  50.7221
 31.0019 -10.2704  12.6794
3.60545 50.4854 37.9451
-17.7638  67.8091  -15.039
 5.36736  57.9173 -23.3468
-26.4764  71.3123  17.4336
-28.6048  59.3381  22.6244
17.4079 20.2281 3.38675
-9.66048  37.0001 -12.4914
-51.1597  68.5956 -37.1968
-8.27943  86.4129  21.8143
 39.3574  53.6741 -14.6926
36.5823 58.2396 -8.9687
0.332027  55.0479  38.8962
2.73603 1.19571 36.6264
-25.2461  50.6485 -8.42812
 -57.386   58.693 -40.4195
 41.0937  63.3822 -2.07479
 15.555 76.5971  28.184
-14.2074  24.8078  28.1108
 33.0698 -23.6555  8.47404
 25.5791 -4.94763 -2.53006
-25.6608  68.9066 -4.69967
  52.092  67.7998 -4.86425
-57.2418  66.3924 -53.4253
22.2384 74.0941 12.3884
-23.0862 -48.1555  20.2057
2.82049 25.7279 31.7009
0.589354   89.507  5.04496
-12.2549  70.7226  33.9154
 13.7351 -35.1401  23.1248
-20.8182  32.1019  15.9565
-33.2688 -33.5501  22.9077
15.6759  77.553 26.4238
 56.2869  58.0533 -23.0946
-23.5294  -34.971  9.51074
-26.2305  1.13501 -2.02814
-4.80017   53.025 -29.5783
-40.6739 -6.36619  7.47021
38.3761 60.3856 7.47214
 6.95175  59.7523 -24.9234
16.7549 18.1551 1.88737
 29.5032  45.6613 -2.68358
   -55.7  79.1049 -37.0672
-26.0535 -8.44718 0.877081
17.1433 81.0784 17.6697
16.9861 27.6464 20.7583
-36.8699 -53.1453  5.24296
 16.8022  35.2504 0.290709
-37.2683  66.1914  -1.6487
 55.1765   53.666 -16.3672
  -53.45  72.1432 -49.7975
 60.0381   76.436 -38.7487
-4.21733  55.3171 -39.4923
-51.1623  66.5346 -10.5951
-29.3541  49.1743  -8.1852
-4.08736  5.90615  9.45776
2.67464 41.3047 -13.493
  18.804  41.8894 -7.57346
 32.5592 -18.4669  1.38123
-34.4403 -27.2542  22.8305
 22.5857  59.5076 -7.60676
 13.8555  80.8135 -17.4978
-33.4033 -10.4008  15.9542
-3.29458  50.0438  38.2029
  33.535  49.8474 -7.58997
 22.8481 -12.6214  20.0451
27.6972  -17.47 21.3519
-34.5083  64.7992  4.50234
 -5.4093  51.3048 -11.4227
 49.9005  61.7163 -27.6875
14.3099 26.3682 4.39792
 35.3668 -48.7767  15.3431
  5.3944  44.2971 -14.4343
 44.5096  52.6936 -19.2468
-21.8267  1.65208 -1.29072
-25.2558  2.71369  25.2872
3.09926 4.45965 28.2002
 35.8131  62.7541 -1.25742
 62.0883   74.143 -36.2688
-1.41999  15.3835   29.872
8.50114 63.9024 37.6234
0.481247  6.12108  5.51331
-18.6465  52.8953 -12.9499
-51.2523  62.3495 -34.7945
-10.2579  10.7654  27.3846
-37.6828 -49.1509  20.6373
5.72778 87.2911  19.291
-57.2339  73.2869 -25.8921
-9.03148  88.4932 0.404701
-40.1836 -35.0867  17.1073
-22.4851  23.4737  14.2061
-5.17025 -2.97302  36.7372
 54.5155  83.9242 -22.1428
-24.1085 -38.6266  11.6847
9.68282 67.7166 35.5992
-9.53195  7.67819   3.1441
-31.2352  -22.437  22.3708
10.7378 72.6601 34.2119
0.956659 -2.68792  45.9137
 53.6946  82.6027 -42.1284
-32.2237 -4.09198  19.3997
-14.6505  96.0359 -25.2025
-29.4235  46.2977  5.04022
 25.3398 -42.5818  13.7475
-36.5167 -53.4802  1.02505
-17.531 79.6862 2.56629
-20.0271  29.7184   9.8276
-39.8764 -44.7893  18.0813
-7.65688  42.9577 -14.7434
-19.8814   76.484  -5.1428
-30.0017 -2.30911  21.3376
 59.2978  67.7676 -6.09329
-50.4107  61.1698  -8.2455
-51.6132  59.1885 -33.7247
46.4511 56.4681 1.03191
-19.1201  23.4381  23.0596
 38.4208  56.7394 -11.4274
 -35.727 -51.9383  -0.7132
-38.7958  48.6734  5.20472
-32.6535  -53.027  21.7112
 29.998 9.97994 17.5472
 1.92107  18.1938 -4.40684
-47.2525  57.0277 -27.8455
 21.8971 -52.9484  20.6208
14.7089 6.49507 24.6822
-38.4338  5.44901   9.9575
-28.3808  68.9465  16.2215
-60.0139  70.4442 -25.7193
-0.837065  -6.29223   41.1015
 1.11254  76.0179 -29.2188
-29.8242 -31.7433  3.81939
-40.4355  -4.2195  10.1243
-53.3289  54.5506 -31.8107
 62.2083  76.2356 -29.3328
-53.2214  73.9438  -53.162
10.4808 84.5538 1.73261
-29.7697  10.8162  1.72978
-47.0593  53.6432 -28.0977
 50.8455  69.2731 -5.86862
-38.1541  4.57781  13.9643
15.5741 78.8106 -1.1844
20.2712 17.1716 19.2648
17.1611  29.293 19.9096
 3.12658  51.7956 -13.3127
-40.0953 -37.1332   15.089
 39.3098  64.2578 -10.9882
21.5993 67.8515 25.0008
6.06218 65.0829 38.2225
6.13399 21.2702 30.4927
-62.8254   64.378 -38.1771
 20.5037  41.8485 -4.64967
15.6859 19.6264 1.94584
-20.0663  32.5031  8.03309
 10.2773  84.6324 -6.35664
 24.2776 -46.1802  4.83329
-30.4821 -6.62554  19.4252
 8.21752  28.3078 -3.46657
 20.8013 -6.73239  21.2986
-18.5106   22.383  4.57787
-9.93048  27.9899  31.0957
 21.4154 -40.4771  14.4178
-52.7062   50.655  -20.139
-4.93526  73.2617  36.2372
-28.2787  70.2105  9.28166
10.8556 49.6088 35.6734
-35.8474  64.6471 -10.2903
9.83644 84.6096 22.0099
-59.4529  59.6958 -34.7492
 25.2697 -24.8185  26.9575
-3.60576  6.28419  20.2716
-6.09595  9.73926  28.5439
55.9241 74.7218 -36.456
 5.93776  69.3477 -33.6743
-28.2254  65.3373 -4.36915
 4.61438  55.4988 -37.9121
 25.1617 -36.4483  11.0674
-13.4925  65.9736 -14.4653
-53.4547  81.1251  -39.772
20.2259 1.76539 24.5763
 17.4959 -11.1792  17.7057
28.2078 13.1829 7.33423
-15.4719  15.2814 0.386053
28.7115 6.43687 20.4411
-55.9028  76.4637 -33.4821
-7.4624 4.84227 19.0201
 14.0425 -49.2766  30.5757
-13.1429  76.6492  30.8199
-27.2946  18.4895  13.9354
32.8024 -49.381 6.88496
3.72977  55.441 -26.207
15.6274 -39.793 26.6861
 35.1562 -2.90197  6.23686
-6.48032   85.078 -9.45099
-8.79567  61.9139 -23.9654
-39.4639  0.78992  3.23369
 15.2093 -28.8155  9.02764
 32.715 44.8387 5.25217
 33.9945 -53.0286   8.6861
-16.2572  78.2368  25.4326
-6.26832 -5.77923  51.0979
 -44.343 -45.6086   5.7927
-61.9551  67.3994  -44.547
-9.62022  5.68416  22.0079
-11.3189   80.407 -11.7214
3.56237 9.81999 28.7392
-54.5885  62.9835 -41.4026
33.2396 -21.119 15.4222
 29.9243 -39.6697  19.8493
-47.2035 -46.8813  12.4096
-27.5746 -5.18305  20.8504
-22.2087  6.86517   26.236
 25.8901  62.2246 -4.29042
 16.0257 -13.0268  14.3877
24.5349  6.1879 23.9568
-8.08087  89.2161  6.61688
-44.8514  54.4795   1.0018
3.22716 1.54527 32.8144
 -28.209 -53.1988   20.147
 6.6448 81.4791 29.6748
-12.3299  85.1031  3.00628
 15.4171 -36.5862  14.3552
16.3994 44.1124 30.0732
  60.612  76.1841 -39.6088
-5.84423  57.3172 -24.8154
16.5811 31.0488 22.6385
1.42655 47.5577 35.9016
 5.33432  88.3193 -5.35203
3.86568 5.93596 21.9017
 24.7093  51.7466 -6.28311
21.3467 41.5773  22.735
-59.2427  58.1636 -13.8274
-41.4439  -48.367  16.9623
27.5848 -36.511 27.4102
-21.896 78.1287 12.6527
 8.27409  62.8748 -22.0359
-40.1059 -36.2094  13.6819
  -5.9792 -0.552219   35.0032
 -7.2525  84.0345 -12.1217
17.2748 10.3091 0.57673
-13.6531  48.2082 -15.1834
-28.5745 -53.1385  17.7389
 17.0899  63.8967 -11.1805
4.00105  42.226 33.8457
19.1118 14.9661 3.01208
-20.5896  39.7898  22.1007
 12.6278  75.5313 -8.43882
-4.90845  -3.5915  39.1599
 11.1015  83.3825 -23.3525
-50.1714  72.9658 -32.5878
-25.8477 -53.6059  22.9674
 21.5483  66.7732 -5.78667
-33.1904  45.6943 0.701658
 21.0078  65.3736 -8.75285
-55.7021  72.0965  -49.793
-17.4884  27.8046  25.4233
-51.6236  56.4864 -34.2814
19.6373 73.4175 25.9721
 50.3736   65.769 -25.3156
 58.8948  78.9661 -23.1356
-14.7759  70.1036 -21.0675
 15.248 40.8302 30.1783
-38.0083  50.7584   7.5909
-39.1928  60.9938 -21.9559
-3.62764  68.7475  37.4876
-29.8728  64.8351   12.422
-50.6063  77.1675 -40.0069
4.80618 89.1812 5.91464
-15.2843  96.3173 -25.3043
-22.6981  64.9203  29.1818
 14.1114 -9.87979  10.7356
25.7736 16.5445 11.3019
 6.15139  83.3985 -13.1231
-47.4976  -53.008  6.31284
-6.52417  23.0242  31.5469
14.3632 71.2258 32.3082
40.5694 62.3352 2.48516
-49.0923  55.2556 -3.30122
18.5021 60.0031 31.6915
-10.664 6.62849 23.1837
17.8418 32.4921 10.4462
25.3711 66.5265  17.489
42.955 59.408 4.5754
 19.0566 -52.6496  7.75838
-6.12554  7.41849  2.96267
 50.4521  50.9489 -7.65778
 9.14534  31.8056 -4.54423
 2.59641 -2.06923  38.5797
-12.9536  84.2241 -3.49209
 32.6617 -26.3619  10.2966
22.8231 73.4543 10.1183
22.1393 40.1504 21.6329
-58.6939  63.5742   -12.49
-16.2833  66.9712 -16.7278
-41.4681 -9.01235 -1.29209
-28.1359   51.507  16.8176
-24.3534 -23.3371  19.2247
1.19507 4.65013 11.4967
-14.2734  3.95491  2.32178
 48.8237  49.4829 -11.7892
 15.2441 -11.4609  13.4139
  32.689 -11.7742  8.71383
 17.2124 -49.2801  14.1799
 12.9387  82.0074 -21.4197
-11.5367  28.0191 -1.68151
2.15746 53.9883 -34.238
-10.0013  86.0977 -7.42546
-9.18267  42.9871 -14.8479
12.9748 82.1952 21.4352
-22.3568   39.808  17.7215
8.05786 11.4923 26.9014
 -39.563 -28.8229  6.10189
  30.865 -24.5091  23.6436
-17.4386  6.29142  25.6387
 -18.294 -4.17244  5.52378
 27.6873 -44.4639   8.8387
-52.2653  76.4694 -34.8371
2.40374  79.852 32.5336
-36.0645 -43.9351  5.91061
 46.9309  51.2201 -18.6328
-40.1344 -34.7299  13.5629
  24.175 -7.29831 -2.19731
 21.1461 -34.2418  29.5542
  -7.476   37.954 -12.9266
-0.210617   64.8165  -38.9581
12.8036 70.5748 33.5339
5.81917 54.9154 38.5726
-15.1546  39.5566  29.0221
-42.4482  47.9543 -8.14486
 25.8221 -53.1122  10.4099
34.5376 64.1157 2.48136
-47.1712 -53.3707  9.20763
-10.8879    81.53 -22.5806
-62.6104  58.4069 -21.5768
-34.7193  46.3539 -4.28187
 23.7262 -23.7791  3.26422
32.0743 47.3596 11.2491
-53.2366  66.6311 -41.2703
-42.5851 -51.8156  16.2599
 15.0315 -19.5246  17.8721
 21.9653 -53.1428  11.1081
4.33192 34.9035 32.2221
 58.9287  63.1368 -5.46791
0.510488  60.9651  39.0598
-24.7417   -29.76  20.1679
 -10.026  91.9803 -24.8229
-21.328 1.76427 25.1467
-1.60507  82.6154  30.0589
 45.2882  68.7211 -6.47957
13.9885 32.6021 27.5142
-5.08288  44.5981 -14.3395
-17.0705  10.5127  0.61882
-49.2276   71.289 -16.5392
22.3521  74.049 9.11042
 23.2506 -34.6035  29.7584
3.38037 89.1719 14.6445
-37.4483  8.24087  12.2114
-19.9983    23.47  6.76911
 -43.014 -52.5571  15.9858
  15.271 -39.5329  26.2702
-20.2112  29.9693  11.6434
-7.33538  66.8164 -31.1796
-29.1414 -53.6615  23.5721
-28.4726  69.7216  2.43401
  19.4351  -8.60983 -0.171846
23.1084 7.46624  24.677
-23.6467 -21.8792  3.49416
-23.5351 -37.2307  11.1875
 -55.298  73.6557 -29.6562
13.6988 34.5707 27.1655
 12.562 8.82601 25.9088
 -23.719 -40.6859  14.2591
 50.9081  51.3799 -17.7955
 25.9645 -24.3808  26.7598
 15.2508 -38.2944  26.9385
-14.6302  75.1045 -13.2325
 31.5721 -33.9997  22.0173
-38.4491  55.6758 -16.4567
 37.2709  45.4157 -1.42629
-1.83454  21.5527 -5.93235
-36.6598 -1.91981 -1.34757
-7.55326  57.4582  38.7689
7.48914 46.7564 36.0758
 30.8542  54.8943 -7.23295
23.4092 47.2015 21.6637
10.7754 21.9985  28.438
-4.07344  37.1565 -9.17785
 13.9263  81.5999 0.382294
-50.7248  69.0255 -36.2871
3.30251 44.9222 34.7875
28.3746 48.6236 13.0772
21.8726 14.5016 19.3538
 62.7677  63.6627 -11.1669
 7.72742  62.4557 -21.6806
 46.8558  67.3334 -20.4699
-29.4258 -23.0074  21.8323
-7.84305  88.8188 -2.80153
-36.2615 -25.8682  22.3473
 -25.279 -38.4422  9.78047
-7.01795  20.7841 -4.29604
 30.2902 -8.86412  15.4375
-33.9992  7.02082  20.7667
-41.8346 -53.0683  1.09823
   62.12  68.2845 -27.8733
  22.585 -20.6162  25.1581
 12.8278  67.3459 -18.7617
-5.46054  6.33646  25.3007
 11.0665  79.3659 -15.3598
16.3641  -40.16 27.5605
-7.21683  87.7151 -21.7465
-24.9925  44.5188  21.5198
 -46.7552  -53.3498 0.0769881
-22.331 -20.586 5.86189
-3.29208  84.9173  26.1215
 61.1096  59.2662 -9.85464
 8.16242  70.1913 -32.0905
37.4006 58.7318 9.80883
 25.5835 -53.3857  5.36733
 -12.312 0.734674  20.1725
  14.344  48.0031 -12.8569
-6.57425  41.1133  33.7458
 8.81565  83.9611 -15.1972
-54.9861  65.5046 -46.3034
-2.02296  27.2323 -6.92287
-39.6041 -3.93568   1.9443
-4.73203  55.2715 -31.3321
-29.5541  61.7903  16.4773
 -26.89 43.9523 6.95209
-33.0177 -29.0496  3.75247
 56.8283  75.6801 -36.8866
-3.14515  53.6414 -14.6395
 8.49373  32.1161 -5.30037
16.3344 32.5082 4.51999
-8.84701  60.9576 -18.6755
-16.4565  72.9245  29.2474
-24.2769 -18.2958  16.1257
49.8709 67.1424 -4.3623
-59.6292  70.4234 -45.9847
-12.7115  20.4797  28.3298
1.66971  4.6805 15.3733
-40.7574 -4.68513  6.70047
-17.7813  31.1592  3.79525
 50.9328  62.8189 -1.27785
 -23.8592   41.4976 -0.953975
-45.3666  67.7463 -11.6081
 52.773 85.3702 -29.372
 9.68913  63.8212 -14.7737
-25.3301  73.3675  17.6043
-34.7479 -7.35602 -2.18564
 -28.0599  -9.03158 -0.098948
-24.9657 -15.6708  12.6231
 33.5536   59.928 -7.44018
 -5.7597  63.6937 -36.2643
 1.4406 4.72014 13.3576
 53.4129  54.6265 -21.0981
 19.6116  90.8928 -21.4812
38.4085 63.2955 -12.615
-34.3545  5.39784  20.4922
-8.81997  77.1247  32.7251
-6.43163  55.9318 -29.2244
-2.38694 -5.78614  39.5961
 36.9849 -48.4552  9.66919
 58.7093  81.3968 -29.0408
-35.9098   2.2477  18.9429
 31.437 8.29105 15.5433
15.3673 56.7578 34.2088
 15.9106 -25.3983  24.3129
34.2158 3.27999 9.49003
1.58595 4.13593 25.1356
-3.94289  55.0239 -23.6623
-40.2205  65.6828 -14.4797
-25.6641   53.067  24.9939
-25.5733  72.2789  18.7121
27.2204 60.5202 16.5765
11.5274 44.4828 33.8074
 57.0043  73.5812 -17.1013
 44.3773  49.1862 -1.24573
 28.9742  46.5913 -4.51221
 50.5717  87.6527 -32.2248
 12.6692  8.07287 0.988618
-6.39376  13.8825 -1.90531
29.2212 -53.655 20.4072
-12.9149  17.8306   27.038
 14.6995 -44.2413  24.9312
-5.80555  32.0261    32.73
-4.15904 -2.08684   52.946
 -35.391 -53.3773   5.2908
 58.0769  80.7502 -23.6025
-42.6919  53.9478  3.50431
-0.270153   89.4872    6.0641
18.4125 29.0244 15.1539
18.9446 28.7042 13.8058
-47.6061   70.915 -31.6359
-32.3373  12.9341  19.4367
 -40.447  62.1449 -21.9792
-46.7361 -53.3091  8.21296
  4.7823  49.8938 -12.7604
 13.6474 -7.05028  6.84018
-40.4334 -31.1689  9.47591
53.9454 71.7165 -8.6369
 5.11575  39.3097 -13.2643
-11.6607 -1.14761  15.9423
   4.554  54.7654 -30.1292
20.6762  74.644 6.20988
-60.4182  68.6072 -46.9746
-15.8017  81.1418  2.52149
-20.3059  43.2314  28.6579
  6.6451  60.0693 -19.5593
  11.018  75.2919 -23.3565
-23.7203 -52.3116  17.5988
 21.4769  43.2612 -3.81054
0.278424  16.4179  30.3875
-22.6423 -10.7384  9.30526
15.5218 28.3897 23.8972
 33.9653 -2.03507  13.4088
16.0969 41.6781  29.388
-4.5534 90.4762 9.59419
-53.4772  68.3299 -41.9663
17.9408 23.6501 8.49942
 24.1375  63.1918 -4.49837
 37.0433 -53.0913 -2.36969
-25.1997  74.1788  16.5299
-54.3042  75.7567 -47.0071
-27.2888 -47.7944  11.3177
-29.4208  57.3823  17.4885
 53.4309  86.9076 -33.0252
  32.2139 -0.101812   1.86242
23.9781 43.8435 13.3345
-6.84633   58.381 -33.9547
 14.3375  90.9359 -28.5035
-11.2989  75.4043  -25.261
-4.00397 -1.55106    33.74
-38.8149 -2.56931 0.657014
32.6724 60.7902 12.2723
 8.03612  84.7925 -25.1896
-38.0599 -32.2199  21.0907
-2.73559  83.6277  28.7481
-7.08915  23.7953 -5.21477
-36.3969 -42.9019  20.3931
 17.1763 -20.5516  7.60274
 32.5488 -5.25257 0.751951
  39.518  46.8457 -7.16061
-26.2871  68.5997 -2.91812
-60.8518  61.0011 -34.4342
 29.4532 -39.9594   17.547
 15.5695  76.6091 -5.00191
-6.38805  88.7038  16.2583
 49.7108  73.4099 -23.8513
 61.7482  65.8937 -18.0749
-22.3393  18.0571  4.00098
-2.18196  86.8128  23.5045
 -57.513  58.6522 -37.2925
 55.0994  71.7631 -32.8716
-27.9862  45.7843  2.51984
 61.4407  68.3063 -24.2662
  31.5656   44.7602 -0.380133
29.7068 9.02073 4.47866
 20.0239  67.6195 -7.24052
-15.8232   51.716 -14.0343
 54.3112  56.2828 -4.34591
38.8316 61.3791 5.90424
 26.9251 -49.2347  1.56611
-33.0154 -16.1639  19.5618
 58.5739  55.7594 -10.6871
-35.3286  11.2158  16.0311
-60.2285  63.7824  -47.879
-14.8096  48.1058  35.3133
-51.4931  74.1162  -24.653
-18.2418  74.9861  27.5779
 49.5046  59.8312 -26.9073
-43.6465  48.1397  -8.0868
 29.5654 -45.1264  20.0401
 37.654 62.6222 4.71305
-35.3065  -40.447  8.49015
 21.558  39.851 9.36668
22.0832 72.9014 3.20164
-56.4624  52.9151 -21.9122
 18.456 18.6032  3.6661
-40.0811 -36.6338  16.7752
-3.87317  66.9871 -34.0391
-14.0463  76.0744 -15.1371
 47.0975  55.8165 0.235069
-20.2952  47.9425 -12.5751
-35.6347  1.04537   18.826
-21.7882   42.081  27.0757
-4.93093  89.5189  15.3148
-42.3513 -19.7588  5.37314
-27.6553  54.9756   22.597
-25.5523  43.5911  19.8725
  49.273  70.1273 -23.0646
 15.2147 -35.6787  14.0587
13.8904  84.358 10.8147
-22.5282  -21.962   16.408
-27.7027  46.0801 0.834877
-12.6077  21.2104 -1.18412
 40.3297  46.0186 -3.48202
17.3338 38.7905 25.5466
-33.4272  13.8982    15.06
 63.3207  71.8112 -33.4698
-8.50173  56.4686  38.5974
45.6462 56.1526 2.83595
 1.76827  17.1483 -3.98054
  10.75  -4.895 14.7789
  62.623  72.7509 -34.7109
 2.39324  71.3932 -30.8525
-24.4279 -21.4809   18.764
-29.5699  53.6221 -10.6673
-28.0887  4.31041  24.7495
29.2953 56.1697 15.3453
13.0148 28.5979 1.50969
4.12754 6.37507  24.606
-12.6067  65.7187 -19.4294
  7.8612  61.5209 -28.5249
-27.1223   -30.29   3.8497
 42.6446  63.5281 -1.24026
 15.3073 -9.87936  16.5672
 29.4844 -25.9013  25.2838
 21.6492 -53.5695  27.5901
-39.4639 -48.3208  -3.4964
-4.30166 -4.96379  43.7561
 13.5199 -46.1617  25.5104
 2.15788  23.3836 -5.99099
-27.9885 -42.9762   22.714
 62.5761  72.5824 -26.2804
-0.462775  -5.18814   37.2956
18.2715 61.3245 32.0497
 23.208 46.0242 21.7637
-3.37497  88.8409  -3.8688
23.0897 59.6273 26.5245
-40.0282 -34.7482  12.4691
 9.18067  82.8502 -14.7207
-11.7447  60.6049 -14.1241
-38.4539 -7.52162  12.1491
 -1.4435  56.2733 -42.3533
-38.9514  48.7632 -11.4731
 6.88808  84.1973 -19.1434
32.5847 -21.455 20.2072
-52.7598  51.1521 -17.9253
 33.0734 -28.4582  18.6958
-4.64458  89.2599  4.40346
-11.2488  32.8287  -5.6201
 11.0857  24.8853 0.971311
10.9952 6.67032 1.47303
 24.7561 -40.2119  13.7175
-56.5773  70.4081 -17.7773
-38.8508  64.7662 -19.4617
 51.2681  87.8401 -39.0163
6.02257 77.1233  -27.32
  13.702  78.6688 -19.8288
-51.8954  77.7002 -36.6206
-24.4876 -45.3617  16.3514
 11.1625   91.303 -24.4735
6.03367 75.4071 33.8284
-3.90237  67.8586  37.6128
-53.3273  63.2534 -10.4399
 50.9505  50.8868 -16.5942
  5.328 49.7167  37.578
 22.4958  55.5258 -7.29992
  31.387   63.177 -2.02316
 -13.4384   16.6111 -0.187763
-39.8163 -8.15147  10.2068
-27.6316 -40.4141  9.01483
-0.228788   23.4367  -5.99163
 13.692 83.2737 6.09323
 -49.866  50.2586 -21.5129
30.8126 2.00387 18.6749
7.24069 84.1469 24.1168
-38.339  51.048 7.51049
-37.7062 -27.4126  3.53244
 1.53429  52.7109 -34.1486
7.99161 39.0192 31.1007
4.49664 84.5674 26.0405
-21.9095  39.3681  17.9902
-4.50483  55.2762 -35.8841
-16.6327  82.9997  16.1556
 18.2475 -12.0403  2.87372
-19.4619  54.5581   33.451
27.7587 64.1229  13.798
 9.23262  74.1545 -25.5453
-44.2566  55.5002 -23.4262
-8.4893 89.3337  11.114
15.0894 54.5026 34.5408
   -24.068     73.696 -0.0856404
 31.7636 -28.6907  10.2215
-10.3701  4.64954  6.46951
-9.79556  73.5155 -26.7673
-9.57673  88.8135  9.73046
23.2801 13.1297 3.19014
-41.7178  -25.563  16.0299
25.0193 62.7161 22.1874
-45.8251  69.4307 -14.1007
49.4687  62.042 -24.693
-20.8917  55.2023 -11.3373
-3.63786  55.1628  39.1582
 48.6882  79.4425 -23.2752
4.81713 3.23093  7.9434
20.7342 76.0571 17.3952
11.2654 25.1323 1.10811
-9.03991  89.5597 -20.3934
-11.8632  86.5208 -30.2253
 46.1733  49.3723 -5.60286
3.12333 46.0931 36.9412
 51.6367  78.2313 -18.5611
  34.7064   63.2429 -0.443382
9.81938 79.7192 -9.5698
  9.21426   24.2224 -0.115819
-18.2471 -3.90157  5.20928
13.3119 33.3905 28.5159
-60.3727  71.1442 -33.5491
-46.5442  72.8455 -23.3225
 26.5881 -52.4634 0.311064
-26.5817  17.0951  19.6726
