 0.237728 -0.266229  0.934135
 0.641928  0.122338 -0.756942
-0.281003  -0.87118 -0.402595
  0.23199  0.932488 -0.276852
-0.414532 0.0176286  0.909864
-0.123014  0.421645  0.898378
-0.469046 -0.873837 -0.128077
 0.722186  0.634439 -0.275561
 0.589859 -0.748436  0.303167
 0.463308 0.0983409  0.880724
-0.569727  0.791325  0.221849
-0.587428 -0.497538 -0.638266
 0.241927  0.653051 -0.717632
-0.131348 -0.753781 -0.643865
-0.889773  0.252388  -0.38027
 0.280091  0.635274 -0.719706
 0.666449 -0.731204 -0.145558
-0.914047  0.135151  -0.38243
0.0400211  -0.63757  0.769352
  0.584163   0.810052 -0.0506857
-0.0692974  -0.242012   0.967796
-0.808485  0.579029 -0.105252
-0.57081   0.8069 0.151949
-0.0283342   0.289775  -0.956675
 0.142709  0.249848 -0.957711
 0.265631 -0.785604 -0.558808
-0.0708563  -0.964715   0.253585
-0.862582 -0.505321 0.0245622
 -0.911439  -0.407527 -0.0565805
 0.422318 -0.739765  0.523827
 0.460869  0.773133 -0.435735
-0.831624  0.440844  0.337725
-0.826817 -0.337752 -0.449774
-0.536988 -0.370029 -0.758105
0.123248 0.245777 0.961459
-0.0365167   0.287996   0.956935
-0.276594 -0.948395 -0.155057
 0.350656  0.935354 -0.046411
-0.0573565   0.587558   0.807147
-0.568732 -0.718833  0.399779
 0.778845  0.245232 -0.577288
 0.795177 -0.404551 -0.451699
-0.132797 -0.393168 -0.909826
 0.251445 0.0235985 -0.967584
-0.900389  -0.27243  0.339236
0.564178  0.19923 0.801256
 0.084902 -0.986998 -0.136482
  0.05162 -0.405776 -0.912514
 0.559487 -0.765719  0.317252
-0.223881   0.43296  0.873168
 0.055957  -0.54835 -0.834375
0.217184 0.434397 0.874145
-0.273183 -0.206191 -0.939604
0.493223 0.816247 0.300785
 0.269587  0.568182 -0.777491
 0.173418 -0.466676   0.86726
 -0.95732  0.191953 -0.216086
-0.823964  0.489865 -0.284808
-0.222169  0.880958  0.417797
 -0.67125  0.717229 -0.187099
 0.212953 -0.734479 -0.644354
-0.794011 -0.200927 -0.573738
-0.936652  0.250256  0.245063
-0.409401 -0.105955 -0.906181
-0.427303 -0.863717 -0.267217
-0.358744 -0.838641  0.409858
-0.924334 -0.314141 -0.216615
0.707794 0.302456 0.638395
 0.386739  0.719728 -0.576563
-0.289817  0.427176 -0.856462
 0.585448  -0.80072 -0.126875
 -0.445427   -0.89438 -0.0409681
 0.177652 -0.759334 -0.625981
-0.40108 0.851688 0.337286
-0.455753 -0.111489 -0.883096
-0.572167 -0.797294  0.192218
 0.236033 -0.965123 -0.113252
 0.192994  0.484199 -0.853408
 0.108973 -0.566984 -0.816489
 0.62363 0.381823 0.682127
-0.031376  0.996826 0.0731636
 0.579055  0.448183 -0.681049
0.0331314 -0.539795  0.841144
  0.83304 0.0513776 -0.550821
 -0.869747   0.492405 -0.0328161
-0.365249  0.343823  0.865089
 0.318831 -0.122643 -0.939843
0.664994 -0.26635 0.697739
 -0.19574 -0.979409 0.0494427
 0.719773 -0.574422  0.389828
  0.860735 -0.0235713   0.508507
 -0.170447 -0.0427515   0.984439
0.582988 0.522077 0.622544
-0.904753  0.293367    0.3088
 0.961581  0.243488 -0.126793
-0.732295 -0.590993  0.338336
-0.973767 -0.059483  0.219636
 0.741849   0.36508 -0.562473
 0.636201 -0.259413  0.726604
-0.800759  0.598039 -0.033672
-0.403156   0.82651 -0.392869
0.665057 0.443353 0.600947
 0.876138 -0.248734 -0.412933
 0.746016  0.603002 -0.282575
-0.872014   0.25369 -0.418609
 0.941806 -0.151127 -0.300269
 0.786494 -0.490495 -0.375289
-0.0499182  -0.418734  -0.906736
  0.877402  -0.478964 -0.0275742
0.0299875 -0.453418  0.890793
  0.977943 -0.0581231  -0.200624
 0.883136 -0.467076 0.0437109
-0.777085   0.41088 -0.476778
 -0.93703  0.270933 -0.220385
 -0.85727  0.182999 -0.481248
-0.855723  0.506434  0.106124
 0.683513 -0.620681  0.384142
-0.571564 -0.623231  0.533759
-0.250694 -0.587316 -0.769553
 0.622097  0.782661 0.0208832
0.123894 0.674548 0.727761
  0.765169 -0.0426651  -0.642414
 0.415542  0.371017 -0.830465
 -0.57511 0.0782163 -0.814328
 -0.729883   0.681972 -0.0467409
 0.57027 0.813532  0.11383
-0.0424395  -0.597124  -0.801026
-0.0437718  -0.894438  -0.445044
 0.109017 -0.542214  0.833138
 0.349533  0.510547 -0.785601
-0.545794  0.289469 -0.786331
-0.781439  0.238937 -0.576422
 0.189017  0.852571 -0.487232
-0.113397  0.647287 -0.753764
-0.466084    -0.875   0.13092
 -0.78927  0.583151 -0.192323
-0.129244 -0.947044 -0.293945
-0.928017 0.0520358 -0.368885
 0.839312 -0.489424 -0.236686
 0.679205   0.60779 -0.411427
-0.776609  0.537759  0.328167
-0.767612 -0.177799 -0.615759
 0.810228 -0.576801  0.104073
 -0.990774 -0.0269842    0.13281
-0.152655  0.865543 -0.477004
-0.198916 -0.944918 -0.259926
-0.653046  0.105694 -0.749907
-0.889564  0.056548 -0.453297
-0.801123   0.20799  0.561198
  0.49418 -0.164403 -0.853673
   0.98748 -0.0329329   0.154269
-0.132364  0.891622 -0.433002
 0.644843 -0.115163   0.75559
 0.797844  0.595236 0.0955988
-0.423555  0.904436 0.0509623
 0.628166  0.714887 -0.307153
-0.0428338  0.0408207   0.998248
-0.266737  -0.78042 -0.565505
-0.0371497   0.812865  -0.581266
-0.742273  0.669489 0.0285474
-0.568878   0.16843   0.80499
-0.816297 0.0481004  0.575626
 0.267511  0.956667 -0.115008
0.766083 0.208206 0.608085
 -0.660838   0.744039 -0.0984795
-0.379886 -0.871797  0.309285
-0.502479  0.854108 -0.134218
-0.223777  0.926554   0.30236
   0.98881   0.141902 -0.0460194
-0.950145 0.0601332  0.305955
 0.393499 -0.384878  0.834882
 0.430749 -0.866626 -0.251822
  0.441103  -0.893977 -0.0789518
0.751051 -0.63373 0.185225
 0.581721 -0.116312 -0.805029
 0.877006 0.0317225  0.479432
-0.386401   0.76023 -0.522249
-0.402169  -0.50931  -0.76083
-0.717137 -0.501133 -0.484335
 0.113488   0.25006 -0.961556
-0.811428  0.574937  0.105037
 0.961895 -0.231095  0.146127
  0.87637 -0.425974  -0.22477
-0.0581215   0.914579  -0.400208
0.491816 0.215966 -0.84349
 0.776347  0.272813 -0.568206
  0.520363   0.849766 -0.0843826
-0.601783 0.0605432  0.796362
 -0.652763  -0.752576 -0.0867768
 0.254638  0.595673 -0.761796
 0.689861 -0.409717 -0.596845
 0.132628 -0.990557 0.0347333
-0.302397  0.821972  0.482617
 0.863328  0.409256 -0.295254
 0.772435 -0.548146  0.320751
0.040067 0.747374 0.663194
 0.091396 -0.370793  0.924207
 0.923276  0.368193 -0.109521
 0.804625 -0.585012 -0.101687
-0.764119 -0.633278 -0.122809
0.904984 0.384123 0.182903
 0.674844 -0.103939  0.730604
 0.338135  0.830708 -0.442254
-0.421903  -0.45122 -0.786383
 -0.72267  0.585904 -0.366693
0.252148 -0.78473 0.566234
  0.743712   0.666525 -0.0513422
 -0.991905 -0.0438857  -0.119154
0.925395 0.280282 0.255118
  0.964379   0.261862 -0.0374333
0.0794978 -0.750092  0.656538
0.160946 -0.66255 0.731521
0.0762439  0.958584 -0.274413
-0.739488 -0.670949 0.0546337
  0.805446 -0.0378511  -0.591459
-0.458739  0.309981  0.832749
0.0322233  0.545792  0.837301
-0.361348  0.455049 -0.813854
-0.627906  -0.77636 0.0547712
 -0.26702 -0.962227 0.0530912
 -0.54641 -0.673131 -0.498329
  0.92765 -0.182718  0.325699
-0.518845 -0.300307 -0.800385
0.291557 0.332543 0.896889
 0.719077  -0.49593 -0.486808
 0.871713 -0.395954 -0.288682
-0.462567  0.850779  0.249414
 0.360643  0.932118 0.0330566
 0.310559  0.905797 -0.288243
-0.628211  0.344739   -0.6975
-0.200804 -0.424676  0.882796
-0.517792 -0.769514 -0.373818
0.397978 0.046555 0.916213
-0.461098 -0.865478  0.195799
 0.106164   0.86017 -0.498835
-0.057359 -0.975638 -0.211756
 0.912924 -0.373184  0.165236
 0.265569 -0.430292  0.862741
 -0.743063 -0.0298429   0.668556
 0.126303 0.0336492 -0.991421
 -0.969382  -0.233168 -0.0770178
-0.426643 -0.292435  0.855837
-0.658772 -0.746135 0.0964481
0.903288 0.204077 -0.37739
 0.521723 -0.373156  0.767177
-0.632523 -0.754585   0.17469
 0.969155 0.0380388    0.2435
   0.76031  -0.647484 -0.0518868
-0.513835  0.850556 -0.111926
-0.190157  0.648744 -0.736866
-0.146815  0.987753 0.0528158
0.897855  0.28513 0.335497
 0.281442 -0.713453  0.641697
  0.980539   0.190804 -0.0462308
 0.854101 -0.518869 0.0358606
0.912043 -0.39738 0.101324
0.0439016 -0.863039 -0.503226
-0.707037 -0.589389  0.390794
 0.566712 -0.656166   0.49828
 -0.95206 -0.210778 -0.221707
-0.797791 -0.596105 0.0904855
0.617672 0.577023 0.534346
-0.230795  0.252288  0.939726
-0.674116 -0.737954 -0.031475
  0.620351  -0.782597 -0.0520264
-0.584365 -0.643646 -0.494205
-0.40714 0.829003 0.383395
 0.458257 -0.285695  0.841652
-0.588885 -0.501691  0.633656
-0.478311 -0.100553  0.872415
-0.806775  0.393463  0.440796
  0.802021  -0.593351 -0.0685288
-0.911159  -0.18166  -0.36985
-0.0366456   0.946189  -0.321534
-0.609175 -0.748593 -0.261752
 0.497959   0.47625 -0.724723
0.0595768 -0.147582  0.987254
  0.88438  0.201058 -0.421246
 0.143774 -0.970831 -0.191874
-0.133455  0.905039  0.403848
 0.869326  0.108642 -0.482151
 0.438707  0.893834 0.0927245
 0.033564  -0.80273 -0.595397
-0.382483  0.463069 -0.799546
-0.449851 -0.822024 -0.349156
 0.675772 -0.588957   0.44324
 0.619868 -0.550191 -0.559512
-0.484673  0.867188  0.114359
-0.917173 -0.106797  0.383911
  0.91633  0.112619 -0.384261
 0.152512 -0.985408 0.0755706
-0.210214  0.154673  0.965343
-0.497249 -0.380844  0.779552
-0.284962  -0.85283  0.437582
  0.92293  0.313118 -0.223956
-0.565429  0.614292 -0.550396
-0.490054  0.828706 -0.270359
-0.643524 -0.719207 -0.261949
-0.356818 -0.720917 -0.594104
  0.987981 -0.0694623   0.138088
-0.272845  0.513286 -0.813691
 0.477497  0.552192 -0.683433
 0.571852  0.487835 -0.659547
 0.979935 -0.126501  0.154029
 0.304939 -0.942065 -0.139737
  0.524857  -0.850249 -0.0400274
 -0.91466  0.403446 0.0250648
 0.457056  0.723425 -0.517451
0.644057 0.329034   0.6906
-0.576493  -0.23219  0.783418
 0.296848 -0.905917  0.301987
-0.053487  0.991056 -0.122262
  0.94556 -0.113886  0.304871
-0.364653 -0.930006 0.0460126
 0.416751 -0.905506 0.0798597
 0.796493 -0.173453 -0.579235
-0.279959  0.234219  0.931002
 0.65561 0.744436 0.126454
 0.410211 -0.470606 -0.781189
 -0.972307  -0.228666 -0.0482814
-0.310651 -0.248098  0.917575
 0.514392 -0.377736  -0.76988
  0.51024 -0.852124  0.116365
-0.0373546  -0.558104   -0.82893
  0.859105    0.51066 -0.0341297
 0.655723 -0.586269  0.475727
-0.907999  0.248419   0.33738
-0.855974  0.515777 0.0358084
 0.591919 -0.170154 -0.787832
-0.0817171  -0.278215  -0.957036
 0.400792 -0.891978  0.209141
-0.570105  0.307063  0.762032
0.700058 0.505938 -0.50393
 0.168343 -0.904786 -0.391182
-0.817996 0.0973405 -0.566928
-0.0223382  -0.812109  -0.583077
-0.842373 -0.432411  0.321604
-0.462176 -0.853068  0.242215
-0.466147 -0.878877  0.101402
-0.0704546    0.99592 -0.0563858
 0.554862 -0.481678 -0.678317
 0.647829  0.268872 -0.712759
-0.65961 0.456204 0.597321
-0.048953  0.730963 -0.680659
-0.779983  0.561642  0.276016
0.0287589 -0.748701 -0.662284
-0.853891 0.0430808  0.518666
 0.884539  0.462833 -0.058116
0.0954137  0.514395 -0.852229
 0.430253 -0.233233  0.872058
-0.668297 -0.723875   0.17142
-0.824657 -0.119563  0.552852
-0.407288 -0.877088  0.254625
 0.403917  0.141301 -0.903817
 0.719885  0.661517 -0.210144
-0.874639  0.107021 -0.472814
 0.480931 -0.502255  0.718641
 -0.59504 -0.655721  0.464713
-0.118546 -0.972013 -0.202825
 0.926342 -0.281242  0.250588
0.682369 0.115971  0.72175
-0.965042 -0.095692  0.244002
-0.209828  0.881732 -0.422517
-0.57586  0.46329 0.673608
-0.29284 0.274799 0.915822
-0.0500884  -0.365193  -0.929583
 0.18266 0.813829 -0.55165
 0.192695  0.316196 -0.928918
0.914896 0.276879 0.293775
 0.458301 0.0333389  0.888171
 0.659745 0.0264773  0.751023
 0.0581873 -0.0520691  -0.996947
   0.24396  -0.967461 -0.0671011
-0.208418 -0.931571  0.297887
0.653848  0.72565 -0.21428
0.548772   0.1023 0.829689
-0.112261 -0.968164   0.22373
 0.0324631   0.997489 -0.0629366
 0.666413  0.744155 0.0461132
 0.183544 -0.372978  0.909505
 0.159662 -0.285585   0.94496
 0.804878 -0.509821 -0.303734
-0.373428 -0.866675 -0.330796
-0.640645   0.31726  0.699228
-0.857896 -0.492674 -0.145901
 0.503846 -0.189391  0.842776
-0.243574  0.909837  0.335959
 0.616365  0.665376 -0.421151
   0.50923 -0.0668862   0.858027
0.500972 0.826755 0.255937
 0.731838  0.657776 -0.178167
-0.203527  0.846601 -0.491776
-0.898671 -0.216064  0.381716
 0.802273 -0.593832 0.0610113
-0.970054  -0.23853 0.0458047
 0.964244  0.171588 -0.201967
 -0.29912  0.944235 -0.137646
-0.716957  0.222781  0.660561
 0.852051  0.509213 -0.121287
-0.695543  0.396208  0.599365
-0.782157 -0.578855  0.230559
 0.724892 -0.403345 -0.558431
-0.468221 -0.795042  0.385588
 0.104428 -0.372985 -0.921942
 0.912396 -0.388475 -0.128925
 -0.598127 -0.0291159   0.800873
 -0.64407 -0.763417  -0.04867
-0.414656 0.0475128  0.908737
 0.638465 -0.592711 -0.490975
-0.421701 -0.887226  0.187078
0.0285818  0.127326  0.991449
-0.925318 -0.224634 -0.305495
 0.105099 -0.812252  0.573761
0.501887 0.563716 0.655999
 0.834879 -0.265074  0.482403
 0.897997 -0.281467  0.338198
-0.159602 -0.847242  0.506664
 0.356115  0.927469 -0.113943
 0.449704  0.883365 -0.132035
  0.04662  -0.89528 -0.443058
-0.555019  0.393673  0.732786
-0.419177 -0.816908  0.396173
0.564448 0.803264 0.190173
 0.966303 0.0769087   0.24565
 0.482358 -0.375006 -0.791645
0.219873 -0.21577 0.951367
 0.980951 -0.188771 0.0458409
0.0485333 -0.132642 -0.989975
-0.775714 -0.575716  0.258494
-0.853404 -0.218617  0.473189
-0.805392 -0.592404 0.0200146
0.296857 0.776791 0.555402
  0.809925 -0.0849312  -0.580352
-0.105309   0.96138  0.254281
 0.861968  0.506084 0.0298235
0.666089 0.489711 0.562591
-0.0443654   0.352317  -0.934828
 -0.65639 -0.743819   0.12604
 -0.38934  0.290435 -0.874107
-0.858964  0.498797  -0.11568
 0.862645 -0.359717  0.355594
 0.398081 -0.451045  0.798805
-0.950169 -0.114634  0.289894
-0.0392988  -0.969015   0.243857
 0.591495 -0.367503  0.717687
0.136122 0.136365 0.981262
-0.0361542   0.521713  -0.852355
-0.274747 -0.696294 -0.663091
-0.471052  0.095144  0.876959
 0.640118   0.52589 -0.560079
-0.710234  0.496247 -0.499306
 0.481161  0.264936 -0.835639
0.546029 0.660224 -0.51571
0.492925 0.793466 0.356983
 0.948613 -0.223269 -0.224243
  0.92203  0.386429 0.0230744
-0.663493 0.0865277  0.743162
0.0948884  0.674586  0.732073
 0.480737 -0.374425  0.792905
-0.566485 -0.675946  0.471372
 0.643217 -0.732477 -0.223047
 0.261806  0.964811 0.0244401
   0.15106 -0.0369791  -0.987833
-0.879115  0.465509  0.102268
 0.704907  0.338933 -0.623081
 0.970155 -0.058478 -0.235328
0.725782 0.679127 0.109668
  0.36224 -0.392265 -0.845524
-0.112039   0.86389  0.491062
-0.0520826   0.788467   0.612869
 0.504282  0.691026 -0.517863
 0.355036  0.862957 -0.359521
-0.0295821   0.785882   0.617668
-0.844242  0.397471  0.359543
-0.194962   0.25908 -0.945974
-0.414165 -0.619398  0.666944
-0.587139  -0.80821 0.0454298
0.149819 0.962751 0.225087
   0.7749 -0.408345 -0.482477
 0.12847  0.73113 0.670034
 0.754515 -0.585604 -0.296267
-0.573135  0.713799  0.402502
-0.0475493  -0.736308   0.674974
-0.214536 -0.735667 -0.642471
 0.60058 0.390723 0.697595
-0.215735 -0.781795 -0.585025
-0.188933 -0.390532  0.900993
 0.211911 -0.928991   0.30343
 0.534279  0.331279 -0.777689
  0.739283  -0.672388 -0.0368128
-0.39142  0.25772 0.883386
0.473066 0.717979 0.510602
0.104989 0.401793 0.909692
-0.374435  0.507983  0.775726
-0.322598 -0.311177  0.893924
-0.587543  0.506539   0.63104
 0.872236 -0.109993 -0.476556
0.154117 0.970438 0.185738
 0.326289 -0.407166 -0.853083
-0.827384  0.273516  0.490535
-0.131634   0.94265 -0.306732
-0.474596 -0.845963 -0.243116
-0.981393 -0.152601  0.116535
 0.800435 -0.205593  -0.56306
-0.882703  0.450482 -0.133799
 0.134024 -0.902562 -0.409168
0.0484321 -0.104522 -0.993343
-0.795735  0.479567 -0.369894
 0.767058  0.572243 -0.290102
-0.775868  0.323355 -0.541729
-0.736439 -0.258002 -0.625374
 -0.996282  0.0600255 -0.0618043
  0.74041 -0.360467  0.567325
0.911565 0.392069 0.123818
-0.253087 -0.914318  0.316179
-0.639152  0.666925  0.383009
-0.555139  0.530917 -0.640271
-0.295744 -0.893053  0.339105
-0.868035 0.0461016 -0.494359
-0.281028  0.285528 -0.916241
-0.485319   0.26842 -0.832115
0.201734 0.870885 0.448177
-0.491868 -0.589939  0.640342
 0.564633 0.0180766 -0.825144
 0.782091 -0.613147  0.111287
-0.289644  0.600271  0.745507
-0.271976  0.707553 -0.652225
 0.638847 -0.745363 -0.190546
 0.412295   0.49775 -0.763058
 0.517831 -0.628466  0.580415
-0.872442  0.430495 -0.231342
-0.127451 -0.934707 -0.331781
-0.803974  0.591634 0.0599609
-0.245384 -0.266304  0.932131
  0.941729 -0.0452976   0.333308
 0.868087  0.139604 -0.476378
  0.24635  0.789943 -0.561517
-0.810433  0.337922 -0.478547
-0.122826  -0.58283 -0.803257
 0.120374 -0.212263   0.96977
-0.633835  0.559133 -0.534438
-0.640611 -0.487374 -0.593367
  0.960643 -0.0577738  -0.271713
 0.766333 -0.520586  0.376463
 0.384924  0.192285 -0.902696
-0.818032  0.429195 -0.382904
-0.646346  0.720183 -0.252139
 -0.908011 -0.0584329   0.414851
-0.302674  0.797325  0.522169
0.0607877  0.117629 -0.991195
-0.208677  0.052806  0.976558
-0.611957 -0.571542 -0.546671
 0.911492 -0.038979 -0.409467
    0.3234 -0.0450384   -0.94519
-0.203754 -0.485597  0.850106
0.850888 0.263252 -0.45463
0.910929 0.104031 0.399232
  0.951421 -0.0534788  -0.303214
 -0.866921 -0.0344179   0.497256
 0.451837 -0.868673 -0.203105
-0.722151  0.438965  0.534611
-0.292592   0.18093  0.938964
-0.377939  0.711075 -0.592903
0.513331  0.50693 0.692469
 0.784795 -0.295524  0.544759
0.0541306  0.324504 -0.944334
 0.522467 -0.488042  0.699173
-0.588694  0.412719 -0.695056
 0.754971   0.64742 -0.104237
-0.0518307   0.981382   0.184939
 0.200771 -0.560873 -0.803189
 0.411543 -0.283218 -0.866268
-0.535322 -0.731379  -0.42251
 0.986667 -0.139395 0.0840058
0.126959 -0.45977 0.878916
0.0452991 -0.364967 -0.929918
0.0476439 -0.893125  0.447277
0.454736 0.576457 0.678905
 0.477911 -0.131497  -0.86851
0.673903 0.577686 0.460579
 0.269849 -0.371556 -0.888329
-0.548523  0.723987 -0.418289
0.383267 0.484091 0.786615
-0.127913  -0.88637 -0.444956
 0.77205 -0.20009 0.603244
-0.560677 -0.628438 -0.539172
 0.646044 -0.695928  0.313546
0.749352 0.651193 0.120083
-0.552711 -0.567137 -0.610628
 0.725297 -0.678962 -0.113823
0.020999 0.657242 0.753387
-0.0594306   -0.15223   0.986557
-0.865815 -0.123997 -0.484757
-0.828503 -0.396271 -0.395666
-0.171881 -0.788108  0.591052
-0.333309 -0.284195 -0.898965
 0.702615 -0.345166 -0.622248
 -0.21681 -0.826445 -0.519598
  0.28561  0.306451 -0.908028
-0.731499  0.658544 -0.176718
-0.800779 0.0453342 -0.597242
-0.878655 -0.416277 -0.233835
  0.77252 -0.575057    0.2693
0.0462852 -0.584573  -0.81002
-0.980721 -0.142658 -0.133545
 0.253047 -0.565548  0.784934
-0.138804 -0.658717  0.739476
 0.615575  0.699574 -0.362854
 0.816334 -0.034223  0.576566
0.946006 0.283473 0.157212
 0.268141 -0.888245 -0.372989
 -0.50231 -0.699463 -0.508366
-0.489969 -0.562864  0.665669
-0.201785   -0.5877 -0.783513
 0.293666  0.518741 -0.802912
-0.354917 -0.610675 -0.707892
0.948572 0.079988 -0.30629
0.594733 0.274048 0.755771
0.0243613  0.399092  0.916587
  0.861859 -0.0285528  -0.506344
0.0292486  0.240392  0.970235
0.865445 0.272792 0.420226
-0.303502  0.137875  0.942803
-0.0439263   0.663177   0.747172
0.0569457  0.979758  0.191916
 0.474004 -0.705638 -0.526684
0.207448  0.50754 0.836283
0.0382682  0.992502  0.116085
  0.345539  -0.937789 -0.0339624
   0.6395 -0.503819 -0.580694
 0.957306 -0.257972 -0.130442
 -0.990784    0.12576 -0.0503066
-0.0401155  -0.516119  -0.855577
 0.432707  0.871334 -0.231392
-0.911547  0.401819 0.0873101
-0.217784  0.969771  0.110065
-0.845051 -0.119785  0.521095
-0.766458  0.528365 -0.365202
  0.81498 0.0945077  -0.57173
  -0.82319 -0.0370375   0.566557
 -0.48177  0.872281 0.0838094
-0.889712  0.193287 -0.413584
 0.233152  0.736468 -0.635023
 0.187683 -0.854029  -0.48519
-0.121334  0.527847 -0.840628
-0.262419 -0.139714  0.954786
0.409401 0.889515 0.202864
0.0520447 -0.103624  0.993254
  0.76226  0.327743 -0.558162
 -0.864949  -0.497022 -0.0695181
0.893366  0.40098  0.20276
-0.697699 -0.657254 -0.285014
 0.993015 0.0367066  0.112132
-0.886806  0.213355  0.409945
  0.987742 -0.0652481  -0.141808
 0.174368 -0.943628 -0.281358
-0.767166 -0.517572 -0.378912
-0.0318439   0.434142  -0.900281
 0.342913 -0.826091  0.447196
 0.342499   0.89999 -0.269652
 0.531495 -0.637337  0.557956
0.0431687  0.862917  0.503499
-0.143015 -0.798148  -0.58524
-0.717137 -0.647659  0.257394
-0.378565  0.681905  0.625855
  0.232166 -0.0581314  -0.970937
0.0533133  0.285576 -0.956872
 0.311024 -0.554827  0.771642
 0.114012 -0.138132  -0.98383
 -0.944458   -0.31789 -0.0833335
0.0666111 -0.212389 -0.974912
 -0.978416 -0.0442064  -0.201861
0.0524113  0.980546 -0.189163
 0.536375 -0.752898  0.381375
-0.988294 -0.139832 0.0610107
-0.907535  0.401703  0.122538
-0.829342  0.488509  0.271203
  0.511589 -0.0381693   0.858382
-0.289404  0.901677  0.321284
-0.0776485   0.972182   -0.22098
-0.413156  0.150159  0.898195
-0.820662 -0.374611  0.431486
 -0.743792 -0.0555389     0.6661
 0.276588  0.880893 -0.384091
 0.664078  0.200727 -0.720214
 0.502528 -0.740028  0.447017
-0.133647 -0.978838 -0.154965
-0.569132   0.63253  0.525351
-0.0277299  -0.864221  -0.502348
 0.96481 0.115715 0.236119
-0.0338437   0.864137  -0.502117
-0.857523 -0.425091 -0.289745
0.636315 0.521868 0.568118
 0.567887 -0.642769 -0.514152
 0.254279   0.41099 -0.875459
 0.669689 -0.550555 -0.498403
0.0697943   0.23135 -0.970364
-0.113437  0.806677 -0.580004
 0.940479 -0.229492  0.250663
0.447959 0.871514 0.199488
-0.371416 -0.831068 -0.413977
 -0.77381  0.270421 -0.572792
 -0.942775   0.327148 -0.0644139
0.0120158  0.468977  0.883128
-0.288128  0.080801  0.954177
-0.741289  0.668884 0.0555419
-0.394948 -0.754634 -0.523969
 0.670651 -0.103193  -0.73456
0.0329414 -0.736673  0.675447
-0.0449143  0.0836116  -0.995486
-0.301182  0.848497 -0.435135
 0.910537  0.143485 -0.387729
-0.288195 -0.585619  0.757624
-0.43522 0.473671 -0.76565
-0.125172  0.929565  0.346757
-0.884546 -0.419404 -0.204152
-0.521214 -0.406654 -0.750312
0.810113 0.140093 -0.56929
-0.735316 -0.640958  0.220189
 -0.681043 -0.0219061  -0.731916
-0.584978 -0.125136  0.801338
-0.110314  0.967307   0.22836
-0.0269676   0.145756  -0.988953
-0.411433  0.417944  0.809966
 -0.50935 -0.432797 -0.743807
 0.606649  0.764741 -0.217135
-0.946662   0.14003 -0.290213
-0.248375 -0.829941 -0.499508
  -0.96611   0.250611 -0.0618593
 0.469409  -0.59697 -0.650601
-0.336716  0.634057 -0.696128
-0.666034 -0.495967  0.557149
 0.876782  0.433986 -0.207146
-0.306668  0.841867  0.444088
 0.738106 -0.673663  0.037118
 0.329699 -0.776348  0.537199
-0.208001 -0.971534   0.11339
 0.814812 -0.296146  0.498376
 0.196081  -0.82115 -0.535971
 -0.766027    0.64126 -0.0445827
0.0354176 -0.674552 -0.737377
-0.486862  0.857104   0.16834
 0.625251  0.217816 -0.749411
0.0448946  0.329424  0.943114
-0.643977  0.760333 0.0847783
0.0957093 -0.913872  0.394561
0.402988  0.26757 0.875218
-0.0923839  -0.483772   0.870305
 0.656661 -0.214444  0.723056
-0.849164  0.310835  0.426968
0.0433428  0.578716 -0.814377
0.535526 0.308174 0.786282
0.0304934  0.959688   0.27941
 0.270017  0.958454 0.0919619
-0.775345 -0.526905  0.348154
-0.784837  0.578515 -0.222154
 0.585002 -0.671621  0.454641
-0.517459  0.469579 -0.715354
 -0.89811  0.417478 -0.138241
  0.913232  -0.405452 -0.0401997
  0.54858   0.75137 -0.366748
-0.786043  0.572998  0.231971
-0.677526 0.0345577  0.734687
-0.0538586  -0.246714  -0.967591
-0.95734 0.153422 0.244869
-0.102685    -0.392 -0.914217
 0.93175 0.134296 0.337351
 0.913841 -0.401076 0.0635045
 0.989429 -0.136164 0.0498937
-0.662424 0.0565335 -0.746993
  0.251385 -0.0433898   0.966914
 0.246137  0.941956 -0.228331
-0.494661  0.636449 -0.591814
 -0.42447  0.747139 -0.511477
-0.0656489   0.967907   0.242583
0.0245506   0.65044 -0.759161
 0.246772 -0.722644  0.645669
-0.566139  0.674172  0.474319
 0.917149 -0.112112  -0.38245
 0.185783 -0.878989 -0.439162
0.0560622 -0.988182 -0.142662
 0.394297 -0.805741  -0.44194
-0.0513105   0.282217  -0.957978
0.443194 0.397695 0.803379
 0.382714  0.224211 -0.896248
0.603186 0.772191 0.199721
 0.701505 -0.661304 -0.265645
-0.769048  0.184378 -0.612021
  0.85291 -0.509772  0.112588
 0.840406 -0.237438 -0.487177
-0.378694  0.905862  0.189752
0.0362509 -0.924463 -0.379543
 0.435815 -0.780553   0.44811
-0.545208  0.338463 -0.766936
 0.867006  0.432135 -0.248112
-0.379336  0.788933  0.483414
 0.665895 -0.447109  0.597225
 0.816744  0.496033 -0.294755
 0.351311 -0.697606  0.624441
-0.449821  0.361903  0.816509
 0.935109 -0.120192  0.333355
 0.0661221 -0.0613492   0.995924
-0.753197  0.372801  0.541954
-0.0698075   0.945249   0.318796
-0.674079   -0.1051 -0.731144
  -0.91225 -0.0267741   0.408758
 0.423101  0.905691 0.0266346
-0.208653  0.566786  0.797006
 0.571644  0.207419 -0.793852
 0.461714 -0.115938   0.87942
 0.897596 -0.325186 -0.297618
 0.334599  0.916225 -0.220397
-0.943103  0.288486  0.165328
-0.592546  0.805154 0.0248199
-0.694502 -0.380152  0.610861
 -0.82961 0.0384634 -0.557017
  0.992285  -0.116312 -0.0429257
0.122013 0.552255 0.824698
 0.314692 -0.907467 -0.278341
-0.0680749  -0.280805   0.957348
   0.30752  -0.950145 -0.0515267
 0.601856 -0.663194 -0.444908
 0.777983  0.596773 -0.196481
  0.998158 -0.0477924  0.0373625
 0.249081  0.949997 -0.188319
-0.754302  -0.65618 0.0213862
 0.774525 -0.559852 -0.294409
-0.477764  0.728372  0.491138
  0.44518 -0.189756  0.875105
 0.598427 -0.411409  0.687479
  0.62027  0.558183 -0.551086
-0.626279 -0.759335 -0.176592
 0.794563  0.597967 -0.105384
 0.398959  0.752596 -0.523862
-0.423957 -0.462032  0.778965
-0.0686217   0.664913   0.743762
 0.567941 -0.741692 -0.356842
-0.229341  0.782917 -0.578311
  0.47838  0.657311 -0.582319
 0.975499  0.181085 -0.124937
 0.694438 -0.591286 -0.410046
-0.526987  0.492218  0.692824
0.530939 0.618248 0.579545
-0.201175 -0.473054 -0.857758
 0.508123 -0.818906  0.266841
-0.681036  0.549084 -0.484455
-0.20916 0.481769  0.85097
-0.419567  0.870465 -0.257399
 0.253153 -0.561893 -0.787521
-0.815985  0.441459  0.373207
0.831704 0.265222 0.487776
-0.403891  0.112605   0.90785
-0.553698  0.222826  0.802351
 -0.31437 -0.116465 -0.942129
0.410104 0.675483 0.612811
-0.121409 -0.941089  0.315611
-0.585787 -0.800576 -0.126222
 0.869303 -0.294976  0.396612
 0.663727 -0.736803  0.128789
0.152905 -0.97738 -0.14611
-0.0635809   0.292709   0.954085
-0.784422 0.0445616  0.618624
 0.112562 -0.652606   0.74929
   0.2497 -0.659162 -0.709335
 0.722579 -0.181813 -0.666951
 0.908637 -0.179414  -0.37708
 0.182503  0.575281 -0.797336
 0.670322  0.726374 -0.151823
-0.108757 -0.861368 -0.496202
 -0.95681  0.268375 -0.111754
-0.0379518   -0.91532  -0.400934
0.337902  0.92376 -0.18025
 -0.512077   0.857552 -0.0488025
 0.124131  0.908372 -0.399313
0.414115 -0.14513 -0.89858
 0.171675  0.945158 -0.277857
 0.334318 -0.206344 -0.919594
  0.997575 -0.0597895  -0.035615
 -0.94596  0.241221 -0.216731
 0.932846 -0.334384  -0.13411
  0.812044  -0.582745 -0.0315178
  0.88313  0.272471 -0.381892
-0.823794 -0.300117   0.48093
-0.491151  0.769512  0.408194
-0.655278 -0.289202  0.697834
0.0535697  0.997748 0.0403529
 0.423721 -0.864914  0.269043
0.244289 0.950146 0.193766
-0.138546 0.0555428 -0.988797
0.800402 0.115771 0.588178
 0.65227 0.260997 0.711635
 0.032867  0.988355 -0.148573
 0.409249 0.0124016  0.912338
0.0302625  0.744762 -0.666644
 0.583937 0.0966827  0.806021
 0.102952 -0.913067 -0.394601
 0.655077   0.74893 0.0998939
 0.363954  -0.54063 -0.758457
 0.703904  0.658173 -0.267072
 -0.802261   0.593536 -0.0639729
0.969629 0.138216 -0.20178
 0.625529 -0.770209  0.124468
 0.192068 -0.792755 -0.578489
-0.0816798  -0.852868   0.515699
-0.253213 -0.410003 -0.876231
 0.278764 0.0302528  0.959883
0.0478752 -0.631247 -0.774103
 0.573816 -0.271523  0.772665
 -0.35295   0.36722 -0.860567
-0.598629 0.0226015  0.800708
 0.26188  0.10906 0.958918
 0.281059 -0.564082 -0.776413
 0.499095 -0.126398  0.857279
 -0.78805 -0.213896  0.577257
0.0500958  0.886349  0.460299
0.0848627  0.989738  0.114962
 -0.988355 -0.0733262   0.133332
-0.484978 -0.674503 -0.556634
0.0397227 -0.584208  0.810631
-0.129972  0.581504  0.803094
 0.201568  0.899105 -0.388563
 0.498606 -0.865867 0.0408265
-0.604163 -0.700425 -0.379989
 0.890178 -0.121085  0.439229
0.0502831 -0.272789  0.960759
 -0.4017 0.696373 0.594728
-0.933588 -0.336667 -0.122758
0.772169  0.57075 0.279282
-0.892533  0.374371  0.251458
-0.618393   0.57981  0.530481
 0.720704  0.582787 -0.375427
 0.388357 -0.757952 -0.524106
 0.907641 -0.287563   0.30577
-0.124739 -0.143757   0.98172
0.374833 0.419739 0.826631
  0.259262   0.965142 -0.0358484
-0.406176 -0.764662  0.500313
0.207312 0.312478 0.927027
-0.113783  0.992718 0.0395581
-0.907025 -0.282746  0.312024
-0.637959  0.591146 -0.493513
-0.0705108   0.436612   0.896882
-0.658693  0.174205  0.731967
 -0.885148 -0.0384127  -0.463722
-0.895629 -0.320176 -0.308764
 -0.74596 -0.111496  0.656591
-0.411876  0.684898  -0.60106
-0.694827  0.391902 -0.603016
 -0.40237 0.0379037 -0.914692
-0.24903 0.830002  0.49908
 0.570049 0.0525508  0.819928
-0.802355 -0.579653 -0.142227
   0.52825  -0.846293 -0.0688476
 0.511786 -0.570294  0.642526
-0.817814  -0.43053  -0.38187
-0.237347  0.909225 -0.342019
-0.330697 -0.236994  0.913495
    0.3021   0.951746 -0.0539893
  0.76444 0.0647921  0.641431
 0.998667 0.0371331 0.0358532
 0.840555 -0.120514  0.528151
 0.252941 -0.377974  0.890593
 0.863002 -0.214968  0.457183
 -0.25417 -0.598207  0.759965
 0.746944  0.664382 0.0259133
  0.435886 -0.0557269  -0.898275
 -0.91784 -0.388956 0.0792591
  0.592411 -0.0934916  -0.800193
-0.0540492 -0.0286363   0.998128
-0.678137 -0.588315  0.440472
  -0.58996 -0.0974591  -0.801529
 0.834555 0.0449474  0.549088
0.0549881  0.973909 -0.220178
-0.761511   0.49776 -0.415133
-0.0314364   0.653051  -0.756661
-0.231959 -0.133958  0.963457
-0.0257846  -0.796043   0.604691
  0.742839 -0.0216907   0.669119
 0.187653  0.872531 -0.451084
-0.767069 -0.442876  0.464184
-0.566594  0.327238  0.756232
 0.296466 -0.213229 -0.930936
-0.226872  0.655257  0.720533
 0.757122 -0.200959 -0.621597
-0.479048  0.167785  0.861604
-0.356878 -0.787695  -0.50217
  0.9191 0.232977 0.317769
 0.965417  -0.22854 -0.125456
 -0.737101  -0.674047 -0.0484091
-0.663964  0.591366  0.457645
0.0632819 -0.980384   0.18666
 0.752889 0.0373232  0.657088
 0.335962 -0.932843 -0.130124
 0.846224  0.441093 -0.298902
 0.508618  0.831195 -0.224547
 0.950633 -0.282344  0.128761
 0.329819 -0.630267  -0.70284
 0.326538 -0.292186  0.898888
 0.769815  0.519769 -0.370439
-0.546312 -0.763762  0.343819
  0.969596  -0.242703 -0.0312911
 0.250032 -0.846403 -0.470198
0.690002 0.384983 0.612932
-0.0360616   -0.78166  -0.622662
0.643486 0.736155 0.209765
-0.645542  0.515885  -0.56315
-0.803308 -0.517626 -0.294548
 0.256628  0.250409 -0.933508
0.214422 0.895012 0.391122
 0.985885 0.0960244  0.137152
   -0.789 -0.286118  0.543705
-0.737374 0.0455002   0.67395
  0.795678   0.605053 -0.0284126
 0.50423 0.101795 0.857549
-0.464441  -0.73501  -0.49402
0.0296161 -0.998182 0.0524899
-0.584824 -0.448397   0.67596
 0.261238  -0.13316 -0.956045
 0.410488 -0.531403  -0.74102
-0.207082  0.601787 -0.771343
-0.218591  -0.96306  -0.15727
 0.830617  0.396561 -0.390914
  0.906043   0.419126 -0.0584689
-0.742747 0.0469178 -0.667926
-0.553856  -0.51246  0.656223
0.421132 0.793342 -0.43961
0.853525 0.303178 0.423767
  0.995841  0.0819991 -0.0397089
 0.731907 -0.187038  0.655232
-0.415392  0.753685  0.509321
 -0.546328   -0.83678 -0.0364087
 0.789195 -0.436906  0.431607
-0.878285  0.386145  0.281969
-0.939175 -0.164185 -0.301653
-0.952742 -0.209036  0.220424
  0.52319 -0.681373 -0.511863
 -0.739832 -0.0277812  -0.672218
 0.978973 -0.161148 -0.125076
0.520871 0.187668 0.832751
 0.543259  0.828253 -0.137355
-0.210118  0.529796 -0.821685
   0.1908  0.440636 -0.877175
-0.343018 -0.527361 -0.777322
-0.589614 -0.275759 -0.759153
-0.483718  0.815434  0.317937
 0.467978 -0.716317  0.517578
-0.620318  0.712081  0.328857
   0.14367 -0.0430975   0.988687
 0.939538 -0.259314 -0.223662
 0.388137  0.684315 -0.617302
 0.151099 -0.206728 -0.966661
 0.220614  0.311619 -0.924242
 0.693333  0.391171 -0.605206
 0.701717 -0.630643  0.331484
-0.175362 -0.494045  0.851568
 0.643298  0.715733 -0.271833
0.579936 0.803484 -0.13449
-0.135076  0.649908 -0.747913
 0.316871 -0.289551 -0.903191
-0.331723 -0.374271 -0.865957
 0.194179 -0.720315  0.665914
 0.259864 -0.714709 -0.649355
-0.477332 -0.724598  0.497104
-0.498063 -0.113854 -0.859634
-0.968037 0.0725021  0.240101
-0.447009  -0.87098 -0.203906
0.421537 0.835084  0.35347
0.487402 0.847767 0.209121
 -0.913591 -0.0808727   -0.39851
  0.679607 -0.0361445  -0.732685
0.405195 0.763234  0.50328
 0.345532 -0.560019  0.752985
 -0.250927 -0.0614219  -0.966055
-0.0565698  -0.882098   0.467657
-0.646056  -0.20795 -0.734417
 0.448674  0.801528 -0.395277
-0.972475 -0.194787  0.127865
-0.746295 -0.407799 -0.526064
 0.500843 -0.502284 -0.704888
 0.717729   0.19041 -0.669783
 0.797354 -0.589259 -0.130388
0.647564 0.583417 0.490189
-0.415081  -0.80187 -0.429783
-0.543633  0.759264 -0.357746
-0.179431  -0.46388 -0.867537
-0.126241 -0.977662  0.168048
 0.939772  0.180435 -0.290296
-0.480247 -0.290324 -0.827692
-0.133123 -0.989329 0.0592215
-0.925542  0.316261 -0.208209
-0.298802  0.939705 -0.166349
-0.854961  0.497517 -0.146688
-0.449051  0.264966 -0.853315
-0.396663  0.867001  0.301607
0.283164 0.820269 0.496968
 0.867531 -0.314241 -0.385542
-0.708539    0.2475 -0.660845
  0.864745  -0.492567 -0.0979515
-0.625504  0.199345 -0.754325
-0.486803  0.771528 -0.409594
-0.594225 -0.359906 -0.719281
-0.578628 -0.798966   0.16384
 0.992534 0.0659694  0.102586
0.796145 0.412238 -0.44296
0.916743 0.385214 0.105798
-0.812618 -0.553348  0.182916
-0.288252  0.357438  0.888341
 0.657383 0.0612853  -0.75106
-0.277095 -0.746199  0.605314
   0.93743   0.344735 -0.0488135
-0.233973 -0.874727  0.424394
  0.65225 0.0264353 -0.757543
-0.437097 -0.731853 -0.522817
 0.306034 -0.938475  0.160026
-0.551426 -0.562744  0.615832
0.945319 0.225393 0.235732
-0.721055  0.660366 -0.209754
 0.549545  0.119788 -0.826832
-0.280112 -0.952441  0.119972
 0.796255 -0.554522  0.241836
-0.987904  -0.10028 -0.118275
 0.423422  0.335274 -0.841609
 0.603046 -0.683824 -0.410756
0.390441 0.100043 0.915176
 0.890297 -0.379578   0.25158
-0.611475  0.688375  0.390176
-0.426021 -0.117693  0.897025
-0.939042  0.193378 -0.284264
  0.667379    0.74152 -0.0689424
0.516672 0.828464 0.216095
0.328718 -0.48972 0.807539
 0.211852 -0.479171 -0.851771
 0.740819 0.0548825 -0.669459
0.0670304  0.987636  -0.14171
 0.607284 -0.793149 0.0460507
-0.782648   -0.5343  0.319352
   0.7307 -0.677292 0.0857532
 0.444737 -0.295099 -0.845651
-0.955403  0.292973 0.0370461
 0.278021 -0.456492 -0.845174
-0.969208  0.240617 0.0523323
-0.676556 -0.492202 -0.547731
-0.114584 -0.958261   0.26193
0.0841708 -0.652711  0.752917
 0.442093 -0.675219 -0.590451
 0.657894 -0.164286 -0.734973
-0.883109  0.426372 -0.195768
-0.796634 -0.574029 -0.189378
 0.312014 -0.628899  0.712133
 0.467785 -0.735763 -0.489725
-0.299832 -0.134822  0.944417
0.927708 0.201185 0.314455
 -0.91363  0.261547 -0.311245
-0.0328846  -0.943539  -0.329625
0.604451 -0.12754 0.786366
 0.617904  0.401887 -0.675781
-0.398075 -0.112094  0.910479
  0.965838  -0.248829 -0.0723895
-0.714093 -0.353889  0.604014
-0.726986 -0.674178 -0.130289
 0.814986 -0.430216 -0.388216
 0.781663 -0.316626 -0.537356
  0.89893 -0.419835 -0.125156
0.259523 0.957443 0.126294
-0.964746 -0.134208  0.226393
-0.659296 -0.261789 -0.704837
0.0283981  0.430269 -0.902254
0.930878 0.248062  -0.2682
 0.695839 -0.616191  -0.36894
-0.254237 -0.649577 -0.716529
-0.714261 -0.443378  0.541523
-0.733535   0.48919 -0.471826
-0.958439 0.0611965 -0.278658
 -0.990868  -0.126171 -0.0475465
 0.40236 0.414134 0.816456
-0.578151  0.812317 0.0767003
-0.111507  0.722819  0.681981
-0.704335 -0.488653 -0.514908
0.434283 0.315896 0.843569
 0.238496  0.888121 -0.392887
 0.141352  0.978099 -0.152778
-0.241545  0.040604   0.96954
-0.725551  0.677395  -0.12129
-0.547397 -0.798066  -0.25189
-0.234538  0.945668 -0.225175
-0.677415 -0.595134 -0.432348
-0.734655 -0.651501 -0.189282
0.497495 0.699636 0.512844
-0.434741  0.534163 -0.725031
-0.392468  0.885852  0.247456
 0.886787 -0.176825 -0.427015
-0.124376 -0.219708  0.967605
 -0.95843 -0.248802 -0.139674
-0.588844 -0.733186 -0.340149
0.825198 0.366257 0.430005
 0.424127  0.857028 -0.292607
 0.132806  0.131396 -0.982394
-0.277215   0.72885 -0.626042
0.798198 0.442662  0.40857
  0.610541 -0.0545974    -0.7901
0.645412 0.111076 0.755715
  0.50387 0.0364885  0.863008
 0.585688 -0.778574  0.225373
-0.0488825  -0.683988   0.727854
 0.104822 -0.287544  0.952014
0.958293 0.284545 0.026613
 0.595453 -0.776188 -0.207284
 0.493851 -0.866955 0.0670864
-0.647274 -0.723749  0.239214
0.264994 0.496057 0.826865
-0.393403   0.23596   0.88857
 0.492484 -0.844513 -0.210375
-0.290204  0.753104 -0.590437
-0.618279  0.181557  0.764701
0.0462521 -0.260708 -0.964309
 0.164927 -0.629854  0.759002
-0.278172   0.72412  0.631087
 0.226842 -0.271285 -0.935386
0.679028 0.589548 -0.43744
 0.740186 -0.648298 -0.178424
-0.965238  0.235598 -0.113175
 0.200249  0.229405 -0.952509
-0.942613 -0.258577 -0.211232
-0.628283 -0.369403  0.684692
-0.990135  0.057379  0.127826
-0.519527 -0.382612  0.764002
-0.214099  0.450742 -0.866599
 0.228202 -0.969592 0.0884064
 0.255275 0.0525046 -0.965442
-0.495688 0.0474951 -0.867201
  0.829858 -0.0424195  -0.556361
-0.594505  0.757369 -0.270103
0.0360322 0.0412071  0.998501
0.0495248   0.91914 -0.390806
-0.92314 0.309871 0.227581
-0.565271   0.78578  0.251036
  0.92219 -0.385597 0.0296627
0.0563776  0.310096  0.949032
   0.62229    0.78125 -0.0490232
 -0.64231 -0.695936  0.321109
-0.171049 -0.732074  0.659401
  0.996354  0.0624678 -0.0581158
 -0.563557  -0.821649 -0.0854225
 0.157084 -0.569555  0.806803
 -0.83746 -0.494192 -0.233315
 0.572339 -0.637607   0.51564
-0.730979  0.251435  -0.63439
-0.243311  0.349045  0.904968
  0.25334 -0.748415 -0.612938
-0.532357  0.784808 -0.317289
0.387435 0.594653 0.704473
-0.286021 -0.827053 -0.483916
 0.275034  0.103025 -0.955899
-0.353385 -0.764345 -0.539347
 0.644945 -0.705467 -0.293873
 0.805214   0.34866 -0.479652
 0.201805  0.404789 -0.891864
 0.466645  0.131225 -0.874656
 0.449963 -0.673643  0.586291
 0.570715 -0.263274 -0.777799
0.286712 0.566517 0.772564
-0.209383  0.735061  -0.64486
-0.686601  0.481343 -0.544874
-0.967359  0.146664 -0.206655
 0.253597  0.957189 -0.139563
 0.975938  0.214958 0.0365797
 0.887507 0.0530766 -0.457728
-0.146786  0.270994  0.951323
 -0.643703 -0.0463708   0.763869
-0.551444  0.136845 -0.822911
  0.876899  -0.477566 -0.0545818
 0.577763  0.763026 -0.289794
 -0.753984 -0.0795621  -0.652057
-0.836006 -0.270751  0.477271
-0.537567  0.742428  0.399778
-0.383104  0.249031 -0.889502
-0.115613  0.448507  -0.88627
-0.204775 -0.726454  0.655997
-0.706505 -0.319546 -0.631459
-0.452732  0.121339 -0.883352
 0.846324 -0.211933  0.488693
 -0.994632 -0.0794019 -0.0663488
 0.416829 -0.907933 0.0437133
0.982033 0.136892 0.129889
  -0.36323  -0.930826 -0.0403266
-0.0589832   0.996638  0.0568643
 0.609672 -0.710201 -0.352016
 0.909031 -0.123104   0.39813
-0.190967 -0.929776  -0.31472
0.576256 0.655178 0.488539
-0.251008 -0.939423 -0.233409
-0.0603172  -0.120646   0.990861
0.0694974  0.751117    0.6565
 -0.316869   0.945185 -0.0788597
  0.10496  0.828093 -0.550677
 0.78509 0.433162 0.442724
0.837921 0.211969 0.502948
 0.500491 -0.444872  0.742697
-0.738586 -0.512375 -0.438135
 0.282613  0.144951 -0.948219
 -0.56232 -0.273669 -0.780321
 0.193113 0.0447007 -0.980158
-0.290647 0.0566914 -0.955149
-0.0470325   -0.80809   0.587178
 0.556714 -0.802508  0.214595
0.597151 0.327161 0.732377
 0.596558  -0.48034 -0.642956
-0.490461 -0.481139 -0.726604
 0.170559  0.965229 -0.198095
-0.850531  0.121582  0.511678
-0.943085  0.313755 -0.110224
-0.569064 -0.817557 0.0881293
-0.0736633  -0.910182   0.407605
-0.621969  0.671961 -0.402022
-0.866654  0.458974  0.195585
-0.0170794  -0.741705  -0.670509
0.427632 0.348638 0.834016
-0.918125  0.220238  0.329456
-0.399205  0.906586 -0.136881
-0.670835 -0.401514 -0.623512
-0.725238 -0.626727 -0.285031
-0.785664  0.590382  0.184882
 0.498731 -0.841085  0.209387
-0.0461522   0.989338   0.138132
-0.732897  0.198156  0.650842
-0.0351857   0.861487   0.506558
0.0431416  0.649718   0.75895
 0.257927 -0.864358 -0.431694
 0.0690563   0.995655 -0.0624708
-0.360339  -0.22829 -0.904455
0.0398769  0.245338 -0.968617
0.209615 0.809826 0.547944
 0.211111 -0.210614 -0.954502
-0.586288 0.0363185 -0.809288
-0.857092 -0.341533  -0.38568
-0.0691403   0.428777  -0.900761
 0.660462 -0.174866  0.730213
-0.124402  0.746669   0.65346
-0.231714  0.404465 -0.884713
  0.88431 -0.221243  0.411154
-0.138782  0.664953  0.733878
 -0.422169   0.905102 -0.0506364
0.744277 0.516664 0.423213
-0.770124 0.0480251 -0.636084
-0.797911  0.602392 0.0215083
0.717721 0.504469 0.479987
-0.765461 -0.411221  -0.49494
 0.778288  -0.23926 -0.580536
-0.881753  0.469953 0.0407023
-0.394775 0.0838936  0.914939
 0.34075 -0.89198 0.297086
-0.898105  0.393306   0.19677
-0.857106 -0.388508  0.338276
-0.258304 -0.216681   0.94145
 0.572216  0.792052 -0.212654
 0.241526  -0.79663 -0.554117
-0.0554686  0.0521283  -0.997099
-0.706866  0.660379 -0.253456
 0.981566  0.149415 -0.119178
   0.66904   0.742114 -0.0406503
-0.0742456   0.151083  -0.985729
-0.486823 -0.809892  0.327228
 -0.600158   0.798723 -0.0430293
0.0265157  0.920754 -0.389242
0.145666 -0.96813 0.203731
-0.510974 -0.290416  0.809051
  0.908801 -0.0188581   0.416804
 -0.595708 -0.0619719   0.800807
-0.338491 -0.392994  0.854973
-0.977758 0.0685011 -0.198234
0.248651 -0.95347 0.170493
-0.394963  0.147346 -0.906804
-0.728326 -0.513695  0.453497
0.0604998  -0.92115  0.384478
-0.983786 -0.120805  0.132556
 0.946517   0.24218 -0.213202
0.262686 -0.85343  0.45017
 0.351572  0.773449 -0.527421
 0.498428 -0.807501  0.315455
-0.037788 -0.985006  0.168332
-0.890762  0.292566  0.347776
-0.282254 -0.943857  0.171661
-0.283766 -0.871334  0.400316
 0.380431 0.0318867  -0.92426
-0.725454 -0.409814 -0.552964
 -0.20994 -0.886452 -0.412465
-0.709009  0.347362 -0.613715
0.529516 0.548509 0.647109
 0.646357 -0.717871 -0.258618
0.341109 -0.73776 0.582542
-0.310851   0.92338  0.225257
 -0.80849 -0.341208 -0.479501
 0.128383 -0.377177    0.9172
 0.654042 -0.496878  0.570387
  0.432891   0.897359 -0.0857403
-0.138555 -0.904484  0.403375
0.767663 0.509001 0.389373
-0.561473 -0.765301  0.314742
-0.641809 -0.118849  0.757599
 0.225876 -0.972828 0.0508437
-0.632314  0.287041 -0.719574
 0.679795  0.733236 0.0156384
 -0.28531  0.237719 -0.928487
 0.553587 -0.713849 -0.428906
-0.965207 -0.226115  0.131327
-0.546477  -0.61588 -0.567499
0.855132 0.504975  0.11726
-0.170908 -0.582362 -0.794761
  0.235272 -0.0314175  -0.971422
  0.14033  0.981887 -0.127299
 0.781407 -0.575423 -0.241437
 0.734596 -0.130693  0.665799
 0.674805  0.484554 -0.556639
-0.491067  -0.12877  0.861552
 0.574412 -0.811955  0.103827
0.309495   0.4127 0.856675
0.0384164  0.866963 -0.496889
  0.153339  -0.987871 -0.0244506
  0.254604  -0.966714 -0.0253309
 -0.67456  0.737847 0.0234724
-0.276699  0.152938 -0.948709
0.804543 0.558063 0.203164
   0.44573 -0.0441348   0.894079
-0.647999 -0.232391  0.725322
-0.916505 -0.111093 -0.384288
-0.912612  0.405528 0.0518361
 0.586501 -0.202253  -0.78429
 -0.654631 -0.0360031  -0.755091
0.0701633 -0.970553 -0.230442
-0.573206  0.218926 -0.789624
-0.846652 -0.495961  -0.19288
-0.0283463   -0.99771  0.0614086
 0.761355 -0.370078  0.532336
-0.753807  0.647153  0.113877
-0.497832 -0.671314   0.54909
 0.102608  0.796179 -0.596297
 0.603903 -0.290663   0.74217
 0.265594  0.922287 -0.280796
0.0567581 -0.295268 -0.953727
0.0925484 -0.654801 -0.750114
  0.67298 -0.593614 -0.441271
-0.630345 -0.553248  0.544594
 -0.491227 -0.0445589  -0.869891
 0.397424 -0.680251  0.615883
0.0267284  0.496051 -0.867882
 0.882833  0.468858 0.0278817
-0.74071 0.137211 0.657663
-0.990715 0.0309532  0.132384
-0.305157  0.938589  0.161026
  0.965287   0.251288 -0.0712421
-0.317149  0.491131  0.811299
-0.723898 -0.665708  0.181121
-0.283207 -0.949559 -0.134653
-0.618011  0.707621 -0.342542
-0.495249 -0.584753  -0.64249
-0.390151 -0.277498  0.877939
 -0.83025  0.504545 -0.236895
 0.378628 -0.637035 -0.671437
 0.389222  0.610879 -0.689444
 0.200628  -0.90813 -0.367488
0.149817 0.300394 0.941976
-0.198763  0.245213  0.948875
0.276588  0.58715 0.760759
 0.175654 -0.551759  0.815296
-0.303813  0.760527  0.573843
-0.378499 -0.768109  0.516476
-0.806379  0.129208 -0.577112
-0.131339  0.975126  0.178546
-0.741225 -0.144072  0.655613
  0.60256 -0.426474  0.674568
 0.950268 -0.186494  0.249422
-0.139614  0.926797 -0.348649
  0.08046  0.762047 -0.642503
 0.110401  0.482145 -0.869108
 -0.897257  -0.438269 -0.0533796
0.0751725  0.235946  0.968854
 0.660183  0.564492 -0.495487
 0.371542  0.815535 -0.443688
  0.95024  0.128868 -0.283615
-0.389779  -0.70334  0.594463
0.0612389  0.971211  0.230215
0.728125 0.586734 0.354369
 0.167334 -0.958559 -0.230574
-0.950967 -0.308162 0.0264128
 0.400937 -0.860988  0.312968
 0.125401  0.076619 -0.989143
-0.430353   0.59605  0.677879
-0.825478 -0.502351  0.257351
-0.927406 -0.216224  0.305228
-0.398603  0.862497 -0.311794
 0.522648 -0.271768 -0.808073
  0.66336 -0.740297 -0.109156
0.220554 0.128884 0.966822
 0.502552 -0.826967 -0.252123
-0.849313 -0.462266  0.254905
-0.448635  0.442469  0.776498
-0.970673   0.19471  0.141003
 0.724595 -0.517169   0.45552
 -0.812237 -0.0859409  -0.576963
-0.522224 -0.783539 -0.336673
 0.108461 -0.732186  0.672413
-0.965859 -0.150423 -0.210923
-0.474875  0.840001  0.262474
-0.295419  0.825551 -0.480824
0.629651 -0.58491 0.511292
-0.392929 -0.900826 -0.184715
-0.904983  0.389513  0.171127
 0.602621  0.658776 -0.450402
-0.366967 -0.385844 -0.846439
 0.324238  -0.94249 0.0811349
-0.681413  0.590049 -0.433034
-0.954578 -0.274056  0.116937
0.299224 0.645347 0.702846
 0.747398  0.661798 0.0584794
 0.844665   0.35378 -0.401724
 0.675826 -0.421944  0.604337
  0.19426 -0.802699   0.56386
-0.0366298  -0.596213    0.80199
-0.725029 -0.266114  0.635229
 -0.212078   0.974565 -0.0724211
-0.206037  0.834032    0.5118
  0.66088 -0.749869 0.0305444
0.692989 0.422196 0.584395
0.846379 0.224697 -0.48286
0.0482852 0.0372048  -0.99814
-0.0601516   -0.86416  -0.499608
-0.404506 -0.183982  0.895838
 0.746421   0.25859 -0.613177
-0.668063 -0.551126 -0.499952
 0.102513 -0.469514 -0.876954
    0.5909  -0.805621 -0.0425723
0.700432 0.499813 0.509492
   0.6339   0.33568 -0.696771
 -0.14718  0.795111 -0.588333
-0.843682  0.500686  0.193685
 0.176208  0.900487 -0.397586
-0.679901  0.731361 -0.053342
-0.577651 -0.692062 -0.432861
  0.81968 -0.358049   0.44713
0.0479455  -0.30255  0.951927
-0.646584 -0.183995  0.740321
-0.221743 -0.973958 0.0472749
  0.87525 -0.445033   0.18943
 0.867915 0.0515404 -0.494031
-0.133529  0.759926 -0.636146
 0.509802 -0.809015 -0.292568
0.460713 -0.76553 0.449119
  0.741058 -0.0930784  -0.664958
 0.383677 -0.611256  0.692212
 0.364788 -0.839562 -0.402573
-0.484753 -0.291734  0.824564
0.461053 0.182374  0.86843
-0.271521 -0.722671  0.635628
 -0.968707   0.246531 -0.0287995
 0.960694 0.0649203 -0.269913
 0.71162 0.266675 0.649986
-0.811818  0.310358  0.494601
 0.738527 -0.046347 -0.672629
-0.760556 -0.353115 -0.544852
 0.487331 -0.267203 -0.831331
 0.388584   -0.3839 -0.837629
 0.323405 -0.452179   0.83123
-0.247183 -0.302571 -0.920517
 0.319543  0.946878 0.0362524
0.819507 0.385591 0.423943
-0.404302 -0.393258  0.825765
  0.32154 -0.945748 0.0466199
 0.566622 -0.799602 -0.198938
0.654926 0.731682 0.188978
 0.140464 -0.960225  0.241327
 0.897793    0.3416 -0.277989
-0.361614  0.608936  0.705997
  0.36957 -0.856256  0.360894
  0.99277  0.117251 0.0256771
 0.196241 -0.782831  0.590479
 0.279307 -0.916535 -0.286273
 0.108075 0.0175233  0.993988
 -0.287803   0.955111 -0.0702319
-0.899569 -0.398815   0.17811
-0.287457  0.771806 -0.567172
0.103074 0.375975 0.920879
 0.650747  0.722236 -0.234313
-0.127669 -0.794949  0.593092
-0.901307  0.121791  0.415708
0.0563629  0.503938 -0.861899
0.0971379 -0.755203 -0.648253
-0.209445 -0.889878  0.405278
  0.56822  -0.82181 0.0418834
-0.0806222    0.94227  -0.325004
-0.0313501  -0.953778  -0.298871
-0.581981  0.802851 -0.129335
-0.355008 -0.706447  0.612292
 0.767927  0.421718 -0.482122
-0.398642 -0.547853 -0.735487
-0.145955  0.966813 -0.209689
-0.840614 -0.506712  0.191343
0.0301613 -0.773321  0.633297
-0.212383 -0.913671 -0.346553
