0.280689 0.476479  -0.1955
 0.246749 -0.431637  0.399605
0.125529 -0.55244 0.909431
-0.199434  0.146127 -0.050708
 0.269627   0.31312 -0.197288
0.0105722 -0.434346  0.728988
 0.330433 0.0316328  0.062444
-0.149041 0.0801452   0.88822
 0.366041  0.663674 -0.144381
-0.196877 -0.288061 -0.121337
 0.199336 -0.392406  0.922113
 0.219278 -0.520201   0.63648
-0.0507413  0.0147938  -0.226712
0.101216 0.318302 0.162156
-0.0963186   0.126426  -0.533739
 -0.135364 -0.0232521  -0.179073
-0.0631379   0.415385  -0.621813
 0.309609 0.0555083  0.409772
-0.318593 -0.273243  0.829111
 0.140414  0.756537 -0.432435
  0.180336   0.225229 -0.0137607
  -0.15435   0.550554 -0.0190149
 0.215544  0.158083 -0.352016
 -0.31962 -0.100151  0.795283
 -0.16745  0.327061 -0.658583
 0.087194 -0.451955  0.205372
-0.204911 -0.732089  0.806639
-0.0518324   0.828483  -0.272304
0.0563717 0.0924608  0.917802
-0.235875 -0.186786  0.907775
0.0566645  0.122949 -0.529169
-0.123094 -0.697379  0.744953
 0.331161 -0.547235   0.75454
0.216873 0.128456 0.732174
0.0885283  0.802001 -0.196117
  0.303345 -0.0572109   0.820608
   0.13072  -0.506757 -0.0755861
-0.121849 -0.646079 0.0820848
 0.182783 -0.519322  0.639453
 0.384313 -0.157284  0.297408
 0.287847   -0.1354 -0.101013
 0.243164  0.171403 -0.556407
  0.169616    0.39279 -0.0002603
-0.341184 0.0169884  0.330355
 0.381831  0.632171 -0.273471
-0.245711   0.35824 -0.623138
 0.153972 -0.322397 -0.110618
-0.435974  0.656596 -0.169571
 0.292283   0.42075 -0.208639
-0.0984615  -0.450875   0.017402
0.00641081   0.824542  -0.216459
 -0.26893  0.467077 -0.140264
-0.0122957   0.221152   0.698103
-0.0169613    0.10611  -0.478236
-0.298302 0.0472922  0.642234
 0.243061  0.532119 -0.103139
 0.276709  0.495481 -0.196231
-0.160782  0.184632 -0.608174
  0.114177  -0.384933 -0.0675412
-0.224445  0.246797   0.25336
-0.262469 -0.569304   0.65667
 0.143231  0.923661 -0.283459
0.168156 0.180086 0.643298
-0.0499772  -0.435093  0.0873735
0.0900419 -0.503902  0.882902
  0.109779 -0.0597765   0.975033
 -0.216462  0.0664415 -0.0865021
 0.194274   0.81378 -0.311754
 0.203436 -0.161007 -0.151654
-0.137765 -0.711803  0.756861
  0.12686  0.105007 -0.183837
0.279079 -0.68247 0.731129
-0.268784 -0.498862  0.642212
 0.158979 -0.490549  0.494193
 -0.358824 -0.0937112   0.520774
-0.134595 -0.372625  0.920875
 0.248084 0.0351311  0.837005
 0.196677  0.735511 -0.418989
-0.301326   0.11146  0.269292
0.119304 0.265562 0.378104
-0.182832  0.132416 -0.377492
-0.197804   0.20533 -0.615998
 0.136697 -0.557067   0.13097
-0.381536 -0.291791 0.0624027
 0.244772  0.508308 -0.517282
-0.247418  0.138043 0.0105498
 0.170606  0.784466 -0.214364
-0.0710907  -0.523625   0.459415
0.0939165 -0.233484   0.95243
-0.155397 -0.654819  0.676074
-0.373199 -0.173284  0.408769
  0.216687   0.438353 -0.0311355
  0.205084   0.449115 -0.0193827
-0.402787  0.638633 -0.156165
-0.275118   0.52526  -0.20342
 0.293504  0.197795 -0.437859
   0.35691 -0.0719134  0.0431037
 0.295282  0.213957 -0.402964
 0.236165 -0.255313   0.90966
-0.00337777    0.450418   -0.596925
0.0197345  0.179194  0.820863
   -0.1662  -0.712448 0.00689726
 0.366031 -0.278214  0.432306
-0.0768783  -0.444693    0.16016
 0.324849  0.305776 -0.367126
-0.0794007  -0.198044  -0.186066
 -0.23497  0.667538 -0.443866
-0.0625514   0.593175 0.00857785
-0.0169761    0.61516 0.00676383
-0.084516 0.0826513  0.916727
-0.0332239  -0.423452   0.762633
 0.124443  0.858941 -0.222019
-0.231988   0.10344  0.758916
0.0900471  -0.41081  0.900776
-0.196117  0.277664  0.248267
-0.256145  0.114193  0.498108
-0.250039 -0.692103  0.709117
-0.249301  0.186937  0.310313
-0.0368093  -0.170217   0.974862
-0.0826529   0.321772  0.0880885
0.0808213 -0.154975 -0.199458
 0.262291  0.233581 -0.286756
  -0.19873    0.34549 -0.0508799
-0.219591  0.247309  0.117446
 0.326471 -0.462797 -0.103493
 0.360585 -0.313928  0.439527
-0.304276  0.284589 -0.585487
   0.21264  0.0659052 -0.0905441
  0.316615  -0.207034 -0.0881165
-0.279595 -0.604471  0.897773
 -0.361255  -0.349932 -0.0625424
0.200352 -0.61811 0.923627
 0.107136   0.55045 0.0126062
 0.275535 -0.284862  -0.11476
  0.182532   0.467447 0.00324046
0.202397 0.112445 0.800433
 0.198902  0.781139 -0.243434
   0.351642   -0.640117 -0.00147419
0.252695 -0.22624 -0.12471
-0.322127 -0.240711  0.801162
 0.457075  0.675772 -0.185308
-0.0954301  -0.492881    0.68656
-0.417522  0.754167 -0.229337
  0.338503  -0.627623 -0.0549973
-0.199115 -0.478466  0.927532
-0.117386 -0.444068  0.162472
 -0.224715   0.537689 -0.0826095
-0.167966  0.182045  0.592085
 -0.26424  0.185337 -0.561331
-0.331449 -0.468437  0.716687
-0.259704  -0.06278  0.880725
   0.361362 -0.00479759    0.214321
0.320619 -0.39128 0.279479
-0.0504909  -0.432024   0.789985
-0.0999363   0.776141  -0.170911
 -0.246433  0.0943577 -0.0327326
-0.116359  0.115164 -0.499602
-0.136037  0.744018 -0.166246
 -0.19082 -0.527259  0.928363
  0.141417  -0.685884 -0.0101878
-0.295499 -0.411843 -0.115608
 -0.276369 -0.0931291  -0.103347
-0.173439  0.688522 -0.468798
-0.242805 -0.253784 -0.123728
 -0.176089   0.200878 -0.0580508
  0.10417  0.118504 -0.348704
-0.335558 -0.664445 0.0715618
0.0409218  0.323011  0.187144
-0.367123 -0.578182 0.0698175
 0.325454  0.248241 -0.502791
0.30315 -0.4202 0.88964
-0.223125 -0.440194  0.506808
-0.179568  0.923755 -0.230223
  0.337232 -0.0210262   0.585631
 0.112203 -0.624009  0.703143
-0.0464982   0.318855  -0.667026
0.0917075 -0.535266  0.710487
-0.176935   0.28964  0.130136
0.00410825 -0.0254731  -0.231181
 0.342962 -0.402301   0.77561
-0.151582 -0.497299  0.385036
0.275986 0.172783 0.154801
-0.373162  -0.29922  0.307058
 0.318046 -0.197965  0.802896
 -0.282926 0.00365157   0.811123
-0.178019 -0.590966 -0.100244
-0.122954  0.261011  0.384198
-0.150355   0.43314 -0.601585
  0.26774  0.407438 -0.565751
  0.265307   -0.71634 -0.0112829
0.0214134 -0.506099  0.549387
-0.0530626  -0.407212  0.0242836
 -0.10106 -0.267564 -0.137503
0.0902755 -0.148531  0.969992
 0.243965  0.464196 -0.544788
-0.165717  0.268735 0.0200239
0.0300896  0.226905   0.54662
-0.0626606   0.508462   0.047977
-0.30965 0.107185 0.207803
-0.171367  0.840591 -0.223307
 0.363569 -0.175278    0.5101
-0.320704  0.378594 -0.362142
 0.282016  0.334438 -0.605446
 -0.337092  -0.179155 -0.0569997
-0.167073 -0.137292 -0.172305
0.130554 0.312483  0.20252
 0.286235 -0.634353  0.881396
  0.173325 -0.0304763   0.941065
-0.353956 -0.341505  0.436804
-0.0841887   0.171355  -0.601781
-0.287834 -0.508222  0.903875
 -0.198687   0.367662 -0.0358377
0.0516447  0.826279 -0.336544
 0.313177  0.261758 -0.376257
 0.340088 -0.465084  0.811276
-0.330469  0.327909  -0.46199
 0.144631 0.0677453 -0.156799
0.0650966  0.604811 -0.519893
0.0134236  0.571258 -0.534242
  0.352396 -0.0504111   0.473508
  0.15989  0.402736 0.0109812
 0.177251  0.119406 -0.477696
 0.333566 -0.157113  0.755072
 -0.34101 -0.329096  0.632979
-0.0507517  -0.338809 -0.0735761
  0.33007  0.318546 -0.490293
-0.197454  0.909665 -0.318419
 0.378721 -0.246145  0.329355
0.0332638   0.83119 -0.313287
 -0.2858 0.143744 0.255737
 0.182945 0.0972399 -0.104108
-0.373404 -0.221776 0.0232798
-0.356771 -0.269962  0.532764
  0.212695   0.445442 -0.0268056
-0.00664475   -0.509717    0.326302
   0.383549   -0.417692 -0.00494387
 0.131527 0.0387528  0.927104
 0.340706 -0.330406  0.686953
-0.111294  0.108859 -0.396704
-0.399182  0.742923 -0.281652
-0.382124 -0.249021  0.110673
 0.203247  0.285072 -0.652506
0.223887 -0.44182 0.355962
-0.435949  0.675357 -0.250132
 0.310222  0.418641 -0.324088
-0.346491 -0.156682  0.692533
-0.347335 -0.362912  0.406726
 -0.382422  -0.408918 -0.0143768
  0.211271   0.545824 -0.0700415
-0.0166158   0.202796   0.770197
 0.293714 -0.495434   0.65994
 0.285952 -0.413812  0.367665
  -0.159202    0.364066 -0.00392787
0.0671576 -0.306457 -0.108929
 0.302171  0.635557 -0.321372
 -0.223344 -0.0840414   0.915761
-0.392652  0.616413 -0.172164
-0.0622928  -0.464207   0.780334
-0.158233 -0.345083 -0.101325
-0.163641  0.288144 0.0736317
-0.152962  0.935522 -0.281252
 0.303704 0.0503764  0.498765
-0.223577  0.905912 -0.261392
  0.141913  -0.479644 -0.0832337
-0.321293   0.36333 -0.480771
-0.261897  0.138936  0.376174
 0.356068 -0.344276 -0.071251
 0.291963  0.419693 -0.513204
0.0214613 -0.258446  -0.15848
 -0.19429 -0.716319 0.0931595
0.169978 0.149957 -0.10366
 0.383043 -0.345939 0.0169002
-0.224049  -0.16724 -0.141497
0.00702273 -0.0906898   0.990763
  0.351308 -0.0150245   0.356701
0.159037 0.257649 0.362563
 0.287939  0.510874 -0.359779
-0.301385   0.20017 -0.480254
-0.0607151   0.752576  -0.124117
-0.361402 -0.040378  0.352662
-0.210477  0.140826  0.703346
0.00483352   0.834503  -0.285295
  0.30168 -0.654506  0.752738
-0.261549  0.544044 -0.147216
 0.198547  0.488036 -0.552994
-0.289194  0.495609 -0.393039
   -0.3422 -0.0377389   0.608206
  0.258386 -0.0995199  -0.119611
 0.332772 -0.128058   0.75901
 0.144283 -0.393167  0.918703
-0.316965 0.0618008 0.0643305
  0.229757 -0.0162337   0.893334
-0.118975 -0.686934  0.847473
  0.372201 -0.0530314   0.126977
-0.188368  0.348568 -0.649525
-0.290576 -0.619416  0.697125
 0.106849  0.872332 -0.265361
 0.313014 -0.193924  0.815826
 0.261836 -0.187255  0.887645
-0.314611 -0.115115  0.808407
  0.370773 -0.0870647   0.369001
 0.233325 -0.370681 -0.117177
 0.363168 -0.157158 0.0224956
0.202361 0.022334 0.893646
0.150713 0.199029 0.513904
  0.102684  -0.471287 -0.0249213
 0.361006  0.654016 -0.311671
-0.0381088  -0.280461  -0.139657
-0.0101072   0.606069   -0.52077
 0.237574  0.579357 -0.489128
0.0199151  0.591403 0.0192853
 0.381613 -0.265228 0.0832714
0.119394 0.205216 0.601465
 0.168311   0.14706 -0.555428
-0.0853148   0.366482  0.0313925
-0.263118 -0.283513  0.899659
  -0.328458  -0.0283252 -0.00701999
0.0048742 -0.479904  0.615987
-0.374468 -0.321114  0.170114
  -0.345178 -0.00187266    0.366601
  0.32555  0.308151 -0.521191
  0.380189  -0.399152 -0.0275435
0.242987 0.133217 0.469796
-0.292419  0.283984 -0.283502
 0.298349 0.0313879  0.718244
-0.384881 -0.450694 0.0435557
-0.0951107   0.552355  -0.538891
-0.135203 -0.295924  0.931762
-0.0444633   0.111755  -0.500466
 0.407615  0.651482 -0.267563
 0.171732 0.0874487  0.866258
-0.308683 -0.223549 -0.095441
-0.316043 -0.403589  0.612637
 0.105155 -0.484148  0.570623
-0.366158  0.740299 -0.179814
 -0.128625 -0.0551378    0.96793
 0.147174  0.468521 -0.577127
 0.309056  0.759341 -0.213548
 0.210094  0.932666 -0.298684
   0.151307 -0.00489178    0.942354
 0.385912 -0.140676  0.179002
 0.156391  0.619926 -0.503228
 0.157976  0.733145 -0.446165
 -0.173181   0.262412 -0.0647321
-0.0332137   0.753617  -0.102867
-0.136609  0.196838  0.644334
-0.168304 -0.675201  0.896749
 0.276989   0.70951 -0.336167
0.136036 0.184383 0.731686
 0.208803  0.753424 -0.339345
-0.328414 -0.402241    0.2121
   0.355465 -0.00393509    0.287107
 0.327651 -0.377041  0.561195
-0.197038  0.679394 -0.145117
-0.227139  0.212577 -0.254736
-0.142997  0.152049 -0.209457
-0.101215  0.487911 0.0411794
-0.316963 0.0804311   0.27576
  0.169857   0.243708 -0.0379458
-0.038402  0.280786  0.364455
  0.36589 -0.463052   0.12054
 -0.315438  -0.213603 -0.0895341
0.207784 0.214256 0.366235
 0.148239 -0.499977  0.646196
-0.107343  0.760669 -0.438307
   0.3102 0.0833323  0.309719
-0.145041 -0.712373  0.837425
 0.212133  0.835025 -0.258328
 0.112492  0.121851 -0.342732
-0.329217  0.346451 -0.408935
 0.351945 -0.107204  0.649459
 0.305725  0.364641 -0.539498
 0.104033 -0.594879 0.0237295
 -0.360592 -0.0387177  0.0799875
-0.147951 -0.485121  0.528723
  0.17016 -0.457332  0.594887
 -0.20177 -0.239919 -0.134995
 0.450165  0.725438 -0.247663
-0.251708 -0.375209  -0.11794
-0.338169 -0.406747   0.82418
0.0028396  0.257726 -0.660394
0.0785907    0.2216 -0.643693
-0.320837 0.0243472   0.47304
  0.368998 -0.0261692   0.186774
 0.326132 -0.568646  0.745466
0.0793229  0.217829  0.596795
-0.365027 -0.597771 0.0608812
-0.0252775 -0.0548789  -0.225266
-0.251864 -0.430393  0.411446
-0.0760222   -0.28498   0.936521
-0.138736  0.693164 -0.131763
  0.19184  0.695127 -0.153585
 0.096273 -0.466908  0.645523
-0.265921 -0.609442  0.175171
 0.337007 -0.492887  0.755083
-0.0549902   0.308912   0.282808
 0.248564 -0.681063  0.147938
-0.0819696  -0.596788   0.845425
 -0.201789   -0.71841 -0.0154622
  0.25831 -0.568307  0.653646
 0.198721 -0.157312  0.930724
   0.316057   -0.689482 -0.00362047
-0.0478467 -0.0741267   0.999158
  0.10268    0.6952 -0.478389
-0.128368 -0.508836  0.464408
0.0530963 -0.358309 -0.048379
   0.301788 -0.00257688  -0.0389165
   -0.1224 -0.0288588  -0.188112
 -0.30782 0.0540778 0.0274177
   0.34667  -0.430768 -0.0921815
-0.061064 -0.444285  0.145919
 0.305609 -0.428093 -0.115285
  0.374698  -0.516897 -0.0438816
0.0658229 -0.456626  0.848583
-0.30657 0.654335 -0.13949
 0.227968 -0.444173   0.57398
0.233195 0.124833 0.672155
  0.327331 -0.0688561   0.761918
 0.293302 0.0552477  0.639573
  0.231482   0.350587 -0.0900224
 0.119513 -0.457806   0.24567
 0.273641  0.399664 -0.141838
-0.160748  0.114429  -0.45668
-0.00332288    0.166177   -0.597502
-0.0694684  -0.523835   0.403013
-0.0322102   0.182372  -0.615499
-0.257882 -0.718147 0.0842475
-0.129622  0.810182 -0.214248
-0.148175   0.78126 -0.397542
0.251626 0.281487 -0.19677
  -0.1504 -0.277822 -0.125356
 0.366379 -0.330541  0.204821
 0.345602 -0.365885  0.418473
 0.352916 -0.645599 0.0235355
-0.304732 -0.663176  0.125769
-0.143352 -0.671945 0.0998797
 0.207274 -0.463728  0.455718
-0.0238848   0.770379  -0.442084
 0.341762 -0.636422 0.0937822
-0.383233 -0.245833  0.173776
 0.24974 0.103133 0.694596
  0.116423  -0.523024 -0.0476833
-0.206577  0.157523  0.551778
 0.114357 -0.203123 -0.174071
 -0.323005 -0.0365644 -0.0227759
 0.0739306   0.665828 -0.0517875
  0.324132  -0.114115 -0.0529951
-0.0311317    0.11541   0.902525
0.146704 0.271273 0.346914
-0.174586  0.145833 -0.095856
 0.323721   0.36856 -0.427816
-0.156357  0.270605 -0.657762
-0.246873   0.14951   -0.4569
  0.290216 -0.0374476 -0.0718787
  0.1216 -0.49116 0.539701
-0.107916 -0.243897 -0.152391
  0.285287  0.0465619 -0.0219306
 0.246608 -0.724544  0.787794
-0.0543618   0.204069   0.753998
 0.330344 -0.382413  0.282462
0.0588031 -0.483081  0.273241
-0.324823 0.0779334  0.193499
-0.0204605   0.190216    0.79927
-0.116904  0.698781 -0.121774
 0.251149 -0.710044   0.10667
-0.180036  0.520354 -0.540251
0.0757952  0.792059 -0.413532
  -0.33228 -0.0261072   0.679502
-0.342927 -0.125693  0.717076
-0.166823 -0.499863  0.925049
  0.30231  0.259086 -0.584766
-0.0480301  -0.308734   0.923512
-0.214151  0.255059  0.261906
0.250158 0.741834 -0.30097
-0.265407 0.0945683   0.61605
-0.114091  0.111681  0.879936
-0.321618 0.0079028  0.634363
  -0.157633    0.368842 -0.00070712
-0.129048  0.135425 -0.546073
0.277323   0.1521 0.279544
 0.178613  0.205709 -0.150243
  0.353676 -0.0703665   0.529788
 0.215522  0.238483 0.0870989
0.0812543 -0.602359   0.83337
-0.245669  0.138674  0.441275
 0.261058 0.0184974  0.833984
 0.157926 -0.183804  0.945596
-0.195875  0.162485   0.60632
-0.207279  0.865455 -0.317998
-0.256147 -0.429126  0.518583
-0.109419  0.311664  0.248397
 0.331741 0.0318394  0.346496
-0.302061 0.0549228  0.481519
-0.235526  0.571348 -0.495339
  0.243276  -0.690202 -0.0726037
 -0.246556  -0.703918 -0.0529465
 -0.12885  0.199872 -0.623944
 0.330399  0.285374 -0.436359
-0.218553 -0.572675  0.926037
 0.369303 -0.362882   0.14768
 0.340383 -0.042419  0.655132
0.178845 0.106277 0.838705
-0.0152316   0.536578  0.0442476
 0.213341  0.713839 -0.428867
-0.243842  0.301725 -0.157003
-0.112411  0.832362 -0.307617
-0.359256 -0.348669  0.216053
-0.147425  0.236833  0.413071
 0.351635 -0.303188  0.543998
 0.270602  0.216996 -0.331886
-0.114609  0.207303  0.596651
-0.0449463   0.289303   0.343595
 0.161391 -0.595152  0.658228
-0.246853  0.640477 -0.441572
 -0.156048   0.383951 0.00705757
-0.199309 -0.370147  0.922392
0.0659306 -0.480137   0.82862
  0.315429  -0.678096 -0.0358368
 -0.0734908   -0.387694 -0.00801726
0.0344282 -0.452327   0.17659
0.0799415  0.809303   -0.2049
 0.293443   0.20395 -0.421172
 0.345625 -0.357656   0.47402
0.175666 0.171546 0.681853
  0.381689  -0.455224 -0.0228604
0.337213 -0.37712 0.703512
  0.38449 -0.233467  0.236204
 -0.10603 -0.618404 0.0319135
0.00861315   -0.42928  0.0508177
-0.249755   0.29287 -0.179003
0.0206821 -0.079106   1.00819
 0.097458  0.757782 -0.154172
0.051901 0.296565 0.324409
 -0.283613  0.0364542 -0.0335193
 0.381256  0.679587 -0.312543
-0.200771 0.0595412  0.867237
0.00806382   0.449458  0.0589033
-0.178109  0.637659 -0.491523
-0.0631581  -0.193361   0.967394
0.00283239   0.322321   0.199035
 0.28502 0.508431 -0.40725
0.296884 0.130299 0.222163
  0.371781 -0.0390454   0.239698
 0.146921  0.113115 -0.464861
  0.107232  -0.336292 -0.0894219
-0.346249 -0.278975  0.637624
-0.367177 -0.335181  0.190062
-0.311418 0.0129955  0.699962
-0.315992 -0.394671  0.284561
-0.239863  0.193481 -0.312646
-0.280835 0.0829827  0.502623
 -0.32908 0.0315969  0.366574
-0.0319083   0.324924   0.153926
-0.0750618  -0.021216  -0.213257
-0.359848  0.592479 -0.196707
0.0691329   0.42634 0.0486345
 -0.22726  -0.72929 0.0582027
 0.153606  0.679947 -0.128191
-0.379243  -0.47242 0.0745422
 0.354771 -0.350528   0.30947
 0.257186 -0.556243 -0.119469
-0.00685355   -0.445689    0.701849
  0.380347 -0.0748831   0.178499
 0.161661 -0.690181  0.881395
0.261154 0.057295  0.78371
 0.212401 -0.376636 -0.113663
 0.258485  0.152387 0.0472639
 0.373917 -0.138999  0.392699
-0.256836  0.204341 -0.589859
 -0.373416  -0.324781 -0.0347394
   0.331235 -0.00716899    0.602807
  0.110039    0.67514 -0.0915038
-0.295792  0.598855 -0.276132
  0.282412 -0.0179424   0.831598
 0.180352 -0.682554  0.135908
 0.293285 0.0684417  0.482778
0.183809 0.161519 0.706808
-0.305628 0.0710965   0.37783
 -0.15827 -0.500516  0.421243
 0.265329 -0.723304 0.0198093
 -0.176077  -0.695226 -0.0442636
-0.276967  0.483052 -0.182267
-0.0694527   0.705759 -0.0859748
 0.0591492 -0.0284934  -0.219039
-0.147676 -0.598989  0.915277
0.341091  -0.3261 0.639296
 -0.201259 -0.0434038   0.926528
-0.37335 -0.27445 0.359528
-0.253184  0.212595  0.213737
-0.0353085   0.265431    0.39903
0.0236031  0.330508 0.0679402
0.0801429 -0.547649  0.859701
0.0222973 0.0534529  0.951213
-0.217399  0.860198 -0.298792
-0.0882048  -0.498849   0.880581
0.219789  0.14425 0.573889
-0.356678 -0.349956  0.272162
 0.203182 -0.447593  0.562849
-0.241706  0.235069 -0.621583
0.0292085  0.209909  0.745242
 0.294728 -0.676781  0.808819
 -0.222664   0.325134 -0.0989467
  0.0423793   -0.390459 -0.00760991
  0.366863 -0.0899147   0.407425
 0.235683  0.142849 -0.493631
-0.362105 -0.164753 0.0134825
 0.333267 -0.571118  0.783252
0.0360398  0.305584   0.29703
-0.156372  -0.59536 -0.084945
-0.0972108   0.103997  -0.438864
-0.131631 -0.451031  0.236253
0.0858419  -0.49377  0.709116
0.184658 0.870034 -0.22608
-0.312025  0.387082 -0.490927
  0.144588  -0.430561 -0.0862272
-0.277552 -0.419781  0.537379
-0.335996 -0.375616  0.684936
  0.22152 -0.677128   0.89711
  0.32709 -0.340026  0.838955
-0.370732 -0.425416  0.114647
-0.126052 -0.678932 0.0355432
 -0.37586 -0.213957 0.0420763
-0.386137 -0.197917  0.231266
0.126016 0.122398 -0.35134
0.0271406 0.0388961  0.960397
0.0454157   0.76192 -0.121825
  0.3112 -0.60564 0.725455
  0.13885  0.384048 0.0163188
-0.289904  0.203279 -0.548437
-0.312013   0.24769 -0.554413
-0.0788573    0.78294  -0.421944
 0.259069  0.169696 0.0722705
  0.16591   0.68265 -0.137173
0.0634564  0.821166 -0.228817
0.00270455  -0.531404    0.45376
-0.305023  0.328277 -0.274222
 0.342614  0.585173 -0.198722
 0.360631 -0.174116  0.548751
-0.133426 -0.597793  0.119562
-0.0819288  -0.107986  -0.206131
-0.140555 0.0536202   0.91254
 -0.23122 -0.460248  0.605708
-0.297817 0.0961621 0.0607451
0.0307468 -0.311342 -0.110305
-0.384204 -0.224282  0.261854
-0.0949795   0.599504  -0.519324
 -0.084568  -0.391271 -0.0192568
 0.100474 0.0713446 -0.204696
0.0758932 -0.462445   0.67405
-0.0546515   -0.44341   0.748213
0.0233974  0.116178 -0.323572
 0.249945 0.0711462  0.784012
  0.23124  0.339119 -0.099372
-0.440689  0.662532 -0.222876
-0.370017 -0.265397  0.405782
-0.0860422  -0.240309   0.951685
-0.377682 -0.258596  0.330962
 -0.13025  0.777572 -0.185964
 0.318281 -0.476524  0.180676
-0.0311757  -0.482908    0.60563
  0.31845 0.0850127  0.132039
0.0955713  0.155913 -0.582971
0.0788663 -0.579716  0.756675
 0.118147 0.0198476  0.944378
 -0.178927   0.554821 -0.0409076
 -0.338878  -0.664282 -0.0110336
0.0513385  0.282823  0.358796
 0.189651 -0.443554  0.278963
 0.142045  0.572602 -0.524671
-0.365455 -0.295294  0.414467
 0.156011 -0.152474 -0.174573
-0.331206  0.308738 -0.445126
  0.106541  -0.454381 -0.0345797
0.348865 -0.29969 0.581605
 0.146167  0.837078 -0.219187
-0.275024  0.649368 -0.356142
0.0588728  0.454858 0.0548691
 0.307212 -0.649173  0.815653
-0.317368  0.381002 -0.322729
 0.216902  0.235702 -0.195546
-0.301108  0.724904  -0.31979
-0.321461  0.253334 -0.425916
-0.365531 -0.170371  0.486625
 0.021839  0.299918 -0.668618
 0.380657 -0.121394  0.321971
  0.151607  -0.396432 -0.0936913
-0.145346  0.439174 0.0248091
 0.319046  0.596363 -0.254424
-0.0176071  -0.487895   0.273848
-0.149425 -0.211731  0.944427
-0.00696484   -0.114829   -0.216833
   0.152771    0.521857 0.000660849
   0.117015   -0.638392 -0.00650219
  0.365195 -0.0407526   0.324621
-0.225661  0.219274 -0.241066
0.227175 0.186449 0.376074
 0.0593467   0.686674 -0.0588555
  -0.1853  0.851147 -0.331931
  0.115355  -0.421696 -0.0578884
-0.361971 -0.116725  0.500374
 0.103747  0.826869 -0.300211
  0.15176 -0.488527  0.351538
  0.251326   0.125402 0.00339404
 0.301271 -0.159827  0.835969
-0.0352443   0.110055  -0.357704
-0.380061 -0.124438   0.12944
 0.202263  0.284789 -0.105097
 0.293312    0.5764 -0.225688
0.306651 0.396732  -0.2693
-0.0277588   0.801689  -0.166652
 0.339294 0.0270401  0.308466
-0.323422 -0.575934   0.15353
-0.101591 -0.379641  0.908844
-0.290046  0.729179  -0.17439
 0.167031 -0.449069  0.264602
   -0.27032     0.09384 0.000306561
-0.283004 0.0685651  0.655054
-0.181548 0.0850804 -0.112124
-0.120397  0.292763  0.317728
0.107912 0.203158 0.702148
0.261347 0.198494 0.211948
 0.341569 -0.210102  0.706631
  0.182677  -0.639683 -0.0893445
 0.346706   0.69191 -0.330864
 -0.337583 -0.0225601   0.590358
-0.0583357  -0.247436   -0.16214
-0.0320869   0.223997   0.658163
-0.265875   0.38223 -0.589641
 0.378512 -0.226411  0.345095
-0.145841  0.597147  -0.51427
-0.380981  -0.32812 0.0945808
-0.304003  0.109465  0.114935
 0.198689  0.240398 -0.153182
0.0780716  0.115483 -0.347286
-0.158101  0.143444  0.804232
 -0.375728  -0.549935 -0.0158009
-0.255822  0.531699 -0.484772
  0.343209 -0.0015445    0.38129
-0.129201 0.0572807 -0.174131
-0.298712  0.578247  -0.22338
 0.203427 -0.584092  0.927378
0.301132 0.103706 0.297095
0.00507837  -0.254006   0.951036
 0.344839 0.0348506   0.17763
0.0138009  0.105104 -0.382545
 0.148321 -0.478013  0.158301
 0.172381  0.205904 -0.118035
-0.0115599   0.466422  0.0584534
 0.173476 -0.020489 -0.156545
-0.297869   0.44412 -0.453112
-0.215571 -0.122418  0.921537
0.203473 0.639498 -0.12359
-0.141958 -0.453657  0.252618
-0.310137 0.0328925  0.608279
-0.0253305   0.621928  -0.514193
-0.303612  0.743123 -0.183879
-0.276624  0.547593 -0.195129
-0.213979  0.224816  0.334215
-0.0956372   0.125209  -0.316003
-0.284847   0.47968 -0.463749
-0.107275  0.274834 -0.662085
-0.203064  0.655799  -0.47559
-0.325543 -0.494092   0.71019
-0.177486 -0.688057   0.12731
  0.308928 -0.0149564   0.771238
-0.208375  0.271046  0.171491
 0.290439  0.497927 -0.327204
-0.113575 -0.446797  0.905099
-0.255623  0.209838   0.16168
-0.0803263   -0.30652  -0.107558
-0.104324  0.374105 -0.647936
 0.299236   0.46786 -0.357405
-0.0646629   0.139774  -0.560519
-0.291132 -0.231657  0.864595
 0.300691 -0.270305  0.862122
-0.265231   0.59984 -0.403218
 0.344662 -0.231089  0.674351
0.120266  0.19596 0.711612
 0.211699 -0.433918  0.925197
-0.0722545   0.323259  0.0886674
 -0.101495  -0.397426 -0.0369571
-0.336661 -0.534593  0.799576
0.0560612  0.162923  0.839737
  0.325598  -0.304797 -0.0931837
 -0.145223   0.643444 -0.0914636
 0.243521  0.302948 -0.154767
-0.262747  0.143216 0.0435848
-0.299661  0.452225 -0.422131
-0.308983   0.39608 -0.282032
0.230355 0.105538 0.757902
-0.150924  0.669868 -0.482302
-0.226888 -0.437584  0.234635
-0.245873  0.671307 -0.402708
-0.378154 -0.160511  0.102207
-0.189292  0.768404 -0.360308
0.0398597 -0.280925   0.93811
-0.215589  0.326245  -0.64766
-0.360829 -0.257247  0.499922
 0.240278  0.198187 -0.594063
-0.203474  0.747798 -0.186403
-0.214968 -0.468014  -0.11577
0.0228366 -0.210074 -0.187317
0.0233664  0.423088 0.0529968
 0.336112 -0.364412  0.816163
0.0882343  0.316989  0.227746
-0.0244962   0.540528   -0.54751
-0.285408 -0.615066 -0.106168
-0.0122653   0.186718    0.80865
-0.103449 -0.221458  0.953803
 0.197334  0.200407 -0.226978
-0.0638656   0.123943  -0.294867
-0.383594 -0.138178  0.297694
0.0327019  0.469731 -0.584369
 -0.220501 -0.0159967   0.901006
-0.260839  0.425171 -0.560848
 0.236463  0.584903 -0.112486
-0.166412  0.768143 -0.405671
 0.380444 -0.155288  0.338531
  -0.044252   -0.395251 0.000357596
 0.259169 -0.720046 0.0713238
 0.31085  0.64279 -0.13745
  0.370844  -0.291478 -0.0315001
 -0.32474 -0.203788   0.78375
 0.182114 -0.555837 -0.106604
-0.232941 -0.519598  0.191357
 0.148585 -0.705793  0.725865
 -0.19864  0.125262 -0.458699
-0.0209896 -0.0780455   0.993539
-0.132982  0.830148 -0.324733
0.0321487  0.829222 -0.246593
 0.133388 -0.687316  0.719336
0.0875602  -0.41658 0.0228499
0.101012  0.29668 0.315228
 0.171542 -0.483776  0.925009
-0.310349 -0.440711  0.886847
0.213225 0.266977 0.206039
-0.322814 -0.391934  0.358875
-0.0682535    0.57213  -0.532604
  0.342149  -0.369195 -0.0898356
 0.294827 -0.406303   0.28095
 0.383929 -0.361747 0.0478384
-0.170945  0.687048 -0.143732
 0.221426 -0.423217 -0.116118
-0.0124039  -0.403821 0.00141443
 0.225374 -0.638647  0.662169
-0.00351666   -0.394829    0.811357
 0.260107 -0.543035  0.920398
-0.146861 -0.463035  0.158868
-0.253719 -0.604205   0.66096
 -0.376874 -0.0531974   0.192654
 0.230954 -0.438118  0.362705
-0.0548315   0.221942   0.615458
  0.349002 -0.0970718   0.675114
-0.283943 -0.421441  0.569678
0.0540221  0.323314  0.172282
 0.238616   0.40021 -0.597526
0.0271835  0.104193 -0.262589
 0.131615 -0.191974 -0.172312
  0.328084 -0.0344854 -0.0116874
 0.334855 -0.460466     0.844
 -0.340329  -0.247821 -0.0756346
 0.217916  0.741176 -0.351209
 0.118465  0.768675 -0.175097
0.0328168  0.320606   0.21684
0.0382435  0.278969 -0.664692
 -0.380695 -0.0833328      0.167
 0.148879 -0.473487  0.307691
 0.174047  0.711151 -0.454273
-0.377676 -0.302298  0.157724
0.213056 -0.68898  0.68439
-0.0813713  -0.484611   0.583684
  0.145808  -0.669252 -0.0412452
 -0.26246 -0.119731 -0.119057
0.0336138  0.816318 -0.201666
 0.326817 -0.620635  0.132568
0.0748996  0.420498 -0.617804
 0.221477  0.869747 -0.289273
-0.292313  0.603501 -0.286443
-0.327922 -0.373406  0.610803
  0.255344 -0.0964579   0.889762
-0.0268646  -0.509962   0.537711
  0.370843 -0.0387856   0.153179
-0.102812 -0.630915  0.723288
  0.226575  -0.712362 -0.0443024
 -0.18237  0.266474 -0.085387
 0.131037 -0.683591  0.863489
-0.0833222   0.204461   0.728002
 -0.282153  -0.711237 -0.0134463
  0.355444  -0.131823 0.00971516
-0.363181 -0.235678  0.490644
 0.212307  0.190827 -0.601414
  0.344488 -0.0350629   0.523143
 0.223313 -0.725544  0.814806
-0.288886 0.0989284  0.375864
-0.163002  0.266387  0.340861
-0.357685 -0.315949  0.465384
 0.090399 -0.212696 -0.176598
 0.281094  0.565729 -0.288654
 0.340745 -0.499462  0.780112
-0.122344  0.126143 -0.207949
0.00509063   0.779936  -0.434368
-0.134477  -0.61248  0.679579
 0.219377  0.138341 -0.501281
0.0419961  0.328195  0.079966
 0.169457 -0.441386  0.214054
-0.0867192   0.343669  0.0301814
-0.0937691   -0.53459   0.884869
-0.273513 -0.655058  0.155148
 0.107265 -0.694362  0.794102
  -0.343903 0.000422958   0.0643476
 0.311843 -0.326245 -0.103232
-0.310089  -0.35341 -0.106672
-0.166022  0.799524 -0.219675
-0.228668  0.507502 -0.526327
 0.295581 -0.318593  0.880176
 0.357222 -0.356592  0.216521
-0.205396  0.745695 -0.381201
-0.134125  0.173965  0.766759
 0.360998  0.595726 -0.170931
-0.00521855    0.694014  -0.0404733
-0.183556  0.735031 -0.434247
 0.254231 -0.502407  0.920469
-0.340631 -0.315163   0.72316
-0.00770992   -0.522902     0.36484
0.190842 0.193581 0.441114
-0.0379035  0.0610557   0.944237
-0.137384 -0.493985  0.351665
  0.24119   0.69793 -0.376956
-0.0766683  -0.523351   0.735078
-0.361608 -0.627269 0.0348001
  -0.16543   0.342444 -0.0174114
 0.154602 -0.216946  0.943077
-0.0728373   0.322502   0.125626
 0.093654  0.202756 -0.629004
-0.382942 -0.516693 0.0364658
    0.1988   0.453525 -0.0131383
 0.127702  0.500318 0.0263471
-0.337341 -0.486295  0.835449
   0.2587   -0.6176 -0.110551
-0.248028 -0.444765  0.219302
-0.243887  0.730431 -0.324235
 0.312173 -0.450176  0.659892
 0.358251 -0.268865  0.518389
 -0.107498  -0.404353 -0.0472046
-0.156363  0.216451 -0.633829
 0.340498 -0.325103  0.703335
 -0.350985 -0.0790855   0.623477
-0.293736 -0.414123  0.440532
0.0410885  0.573854 0.0244104
 -0.11487 -0.637932  0.704971
 0.178739  0.761409 -0.404363
  -0.38039   -0.33204 0.00341771
-0.183121 -0.484975  0.395962
 0.257598 -0.498714  0.196861
 0.0833153  -0.339964 -0.0749514
-0.272892  0.444756 -0.142769
  0.149708 -0.0846297  -0.179167
 0.294317 -0.482922   0.19301
 0.230634 -0.125481 -0.140407
 0.314639 -0.601439  0.152175
 0.173444  0.328984 -0.657383
0.303962 0.119014 0.200276
 0.28144 0.159928 0.139685
  0.158886   0.563612 -0.0311388
-0.254357  0.383951 -0.105612
 -0.358814 -0.0808586    0.47258
-0.0877757  -0.432725  0.0959129
 -0.25234 -0.297811 -0.119135
 0.215862  0.363631 -0.633886
  0.17841 -0.433356 -0.106212
-0.0885058   0.127825   0.874122
-0.273803 0.0875635  0.559353
-0.107122  0.867155 -0.273465
 0.114292 -0.628885 0.0677241
 0.29333 0.129193 0.111563
-0.189384 -0.482032   0.44519
0.184063  0.17581 0.530118
  0.207586   0.150235 -0.0345138
  -0.333792 -0.00945352    0.569089
 -0.353203  -0.247273 -0.0519815
0.0466359 -0.522792  0.379466
 -0.19597 -0.665491  0.906594
-0.165201 -0.685205  0.114114
0.0722048   0.82409 -0.270095
-0.363377 -0.505439  0.116919
-0.221378  0.204879 0.0449676
 0.309282 -0.520952 -0.114698
 0.386834 -0.427159 0.0269572
 0.172382 -0.491376  0.458861
-0.380865 -0.298032 0.0227612
-0.149558  0.542081  -0.53681
-0.245808 -0.272531  0.905954
-0.157125 -0.708385  0.719715
 0.138522  0.801094 -0.354324
0.139073 0.140302  0.82821
-0.0131227  -0.111561   0.986552
0.0402495   0.73684 -0.462326
-0.359643  -0.33638  0.375384
 0.287332  0.206089 -0.558344
  0.102575  -0.530178 0.00586214
-0.101252 -0.522825 0.0392129
 0.410122  0.706379 -0.155144
 -0.34711 0.0232359  0.254647
0.158037 0.302349 0.160015
-0.194926  0.272453  0.124897
0.0780484  0.570052 -0.532564
-0.0495771   0.528019   -0.55255
-0.222141  0.140647  0.603785
-0.132998  0.429865 0.0296801
-0.00176419    0.732649  -0.0690183
-0.368908 -0.207527  0.443416
-0.390427    0.6667 -0.298689
 -0.12449 -0.255512  0.941502
-0.220109  0.925715 -0.288456
-0.226059  0.625993  -0.47835
-0.353119 -0.606439 0.0973643
0.0876097  0.727442  -0.46276
 0.372174 -0.110565 0.0886203
-0.0712303   0.107315  -0.244123
 0.138932 -0.708523  0.834975
0.0925299  0.319734 0.0958625
 0.238176  0.737606 -0.180143
 -0.33934 -0.368262  0.479464
-0.218048   0.18166 -0.588011
-0.290758  0.400792 -0.194386
-0.342001 -0.383208  0.769419
 0.268667 -0.424524  0.442348
 0.0114297 -0.0297087    1.01438
-0.196777 -0.415243   -0.1106
  0.0669747   -0.386512 -0.00961635
-0.00531272    0.707825   -0.479688
-0.110034 0.0607017 -0.194036
 -0.365626  -0.481219 -0.0647822
-0.178229  0.564901 -0.520668
 0.0979836  -0.373652 -0.0481068
-0.0184935   0.226307   0.591974
-0.265745 -0.696801  0.842553
0.235306 0.235239 0.142051
-0.341236  -0.29455  0.707101
 0.261618  0.610005 -0.412685
-0.0804594   0.253197   0.419939
 -0.330357 -0.0911477   0.762171
 0.241102  0.301885 -0.641241
-0.247245  0.758495 -0.247912
  0.100051  -0.470169 0.00984028
  0.34033 -0.352212  0.754686
 0.235109 -0.692107  0.693855
 -0.109658 -0.0381682   0.975739
-0.00604183   -0.218414    0.964278
0.073245 0.225485 0.512239
-0.318529  0.290453 -0.359499
 0.163968  0.478612 -0.566792
   0.34258 -0.0820306   0.701158
 0.255946  0.535464 -0.136669
 0.316736 -0.398552  0.464913
 0.322783  0.373211 -0.392802
-0.0503512   0.108935  -0.365153
 0.153799 -0.323925  0.925705
 0.341381 -0.460022  0.768763
 0.328409 -0.495246  0.856238
0.0336629 -0.409056  0.797836
 0.120871 -0.352178  0.921767
   0.216501    0.169523 -0.00447063
 -0.303418 -0.0359085 -0.0560953
-0.071801  0.307929  0.284414
 -0.0770752 -0.00405316    0.975223
 -0.0385625    0.632631 -0.00853595
  0.33804 -0.342921  0.665645
0.00537994   0.795212  -0.148013
 -0.34536 0.0245725   0.12469
0.0633318  -0.45528  0.692158
-0.197998 -0.732429  0.762849
  0.333596  -0.171138 -0.0600572
 0.260645 -0.691689  0.722471
-0.0230283   0.470683  -0.583871
-0.0949014  -0.514417   0.699244
0.0961043 -0.608025    0.7248
 0.138693  0.740996 -0.165312
   0.27201 -0.0620832   0.867642
0.125094 0.297958  0.30143
 0.316305 -0.546025  0.874274
 0.233576 -0.509841 -0.121407
 0.308865 0.0326369  0.631618
 -0.353252 -0.0700837   0.541492
-0.274427 -0.557547  0.184779
 0.12716 0.606386  -0.5136
 0.339115 -0.294998  0.735449
-0.134259  0.891725 -0.226171
-0.275831  0.549634 -0.397979
 0.177185 -0.514472 -0.106266
 0.219536  0.225635 -0.220445
 0.147345 -0.578291  0.661722
 0.079627 -0.587378    0.8426
0.115503 0.240751 0.430817
 0.376626 -0.441765  0.100371
  0.223933   0.140583 -0.0213187
 0.173841 -0.254996 -0.132752
 0.294149 -0.494028  0.900017
  -0.2215  0.151186 -0.377813
   0.35965  -0.493182 -0.0761237
 0.139521 -0.619037  0.907061
-0.290201  0.419689 -0.516332
-0.310361 -0.642019  0.819076
-0.279454   0.11148  0.382962
-0.339428  -0.39752  0.809435
-0.222087 -0.439852   0.53192
 -0.239334   0.470712 -0.0696358
 0.272913  0.430311 -0.139294
-0.346102 -0.357171  0.471466
 -0.36276 -0.303125  0.432095
-0.225328 -0.111163 -0.142521
0.139584 0.642216 -0.49664
-0.0930982  -0.512497   0.370805
 0.207573 -0.297011  0.921323
 -0.35675  0.732616 -0.307554
 0.170789 -0.440405   0.92368
0.264083 0.145233 0.352067
-0.0405273   -0.07087  -0.220433
 0.303416 -0.506956   0.89397
 0.315804 0.0950667  0.164627
 -0.150203   -0.64911 -0.0603781
-0.0121913   0.250786   0.435989
  0.19528 -0.734099  0.778522
-0.0363932   0.326291    0.10676
 0.316219 -0.628989  0.765599
   0.202373 -0.00951655   -0.135174
-0.301986 -0.625645  0.719576
 -0.348077  -0.350194 -0.0849101
  0.44811  0.738274 -0.193449
-0.255876 -0.505029 -0.122313
 -0.30882  0.368329 -0.529966
 0.282185 -0.419607  0.437745
 -0.356479 0.00208045   0.140187
0.0284853  0.411933 -0.624409
0.0758348 -0.184063  0.966703
-0.0360485    0.23112  -0.648302
0.0975842  0.127407  0.870873
 0.301797 -0.635509  0.146475
 -0.18527  0.748483 -0.185049
 0.120498 -0.521431  0.104757
-0.0793512  -0.444935   0.875596
-0.118077 -0.449594   0.21914
-0.062383  0.640438 -0.024247
0.0371213   0.48516 0.0555591
-0.186764  0.787704  -0.22717
 0.292462  0.280279 -0.288609
0.0798291  0.287811  0.343678
-0.168574 -0.633292   0.91422
 0.296356  0.113663 0.0884233
0.0980219 -0.471431  0.605364
0.00174304   0.117303  -0.302424
-0.271697  0.444903 -0.522961
 0.19018 0.950856 -0.27285
 0.176751 -0.717284  0.852624
-0.233565 -0.606753   0.91888
-0.0575361   0.255194  -0.658903
-0.098667  0.237442  0.446597
  0.220125    0.53765 -0.0768358
-0.0626937   0.208766  -0.634823
 -0.348385 -0.0856541   0.665434
 0.101775 -0.547617 0.0137455
 0.356932 -0.227241  0.561788
 0.328921  0.608515 -0.273835
 -0.29139  0.192395 -0.448086
 -0.375676 -0.0761324   0.306502
-0.0868872   0.230735  -0.647268
-0.107413  0.128888  -0.31251
-0.229393   0.71055 -0.390035
-0.292415  0.465472 -0.250213
 0.237772 -0.483163  0.923139
-0.380006 -0.276785  0.204421
 0.347817 -0.363739  0.365102
 -0.24268 -0.162327 -0.132078
-0.124391 -0.591182  0.105698
-0.459091   0.73116 -0.194377
 0.422589  0.632487 -0.190801
-0.270535  0.550093  -0.43429
 0.379338 -0.281567  0.209424
 -0.31377 0.0879465  0.108664
-0.322845 -0.400761  0.862456
  0.17357  0.022329 -0.144833
 0.169726  0.914892 -0.314423
 -0.216502  -0.717492 -0.0297622
-0.341465 -0.268859  0.697604
 0.356438 -0.188462  0.595163
-0.0683561   0.512403  -0.559046
 0.348489 -0.259162  0.627749
-0.281678  0.321467 -0.611547
-0.281071  0.145707 0.0951815
  -0.1286 -0.498398  0.512366
 0.278171  0.579966 -0.328024
-0.356425 -0.157101  0.609037
 0.385872 -0.173454  0.182389
0.209505 -0.44716 0.570861
  0.0387856 -0.00694954    0.989862
-0.303583 -0.247234 -0.101659
0.330832 -0.11183 0.765222
-0.378411 -0.252636  0.328375
-0.0184338   0.276246  -0.664283
 0.251723  0.529177 -0.123904
  -0.3113 -0.621748  0.147352
-0.315009   0.40511 -0.414746
-0.221585  0.170195 -0.331792
0.236773 0.127791 0.586986
 0.313599  0.406309 -0.437793
0.185577  0.27664 0.277549
-0.349409  -0.18856  0.660734
  0.201243    0.53863 -0.0531337
-0.242029  0.625082 -0.124674
 0.311501  0.273349 -0.352664
 0.250223  0.757162 -0.256807
-0.127967  0.741466 -0.448094
-0.289503 -0.490463  0.654516
-0.235954  0.182903 -0.325453
0.266635 0.482805 -0.14456
0.0376594  0.123522  0.894047
-0.008112  0.048887 -0.242315
-0.268209  0.184126  0.224149
0.218208 0.102686 0.791591
-0.28503 0.491592 -0.43563
-0.0968548  -0.483645   0.292548
 -0.15912 -0.106172   0.95218
-0.135762 -0.604521 -0.064514
-0.0563586   0.794967  -0.414726
-0.212408 -0.445775  0.497681
 0.145547    0.9041 -0.225616
 0.362022 -0.200366  0.520378
-0.236816 -0.428417 -0.119562
 -0.369766 -0.0354242    0.15042
-0.218012 -0.226587  0.919215
 0.295174  0.323845 -0.247385
-0.123953  0.802304 -0.369047
-0.288853 0.0839309  0.430351
 0.249894 -0.714369  0.826122
-0.382069 -0.257615  0.231264
0.0417961  0.116407 -0.276307
-0.0441265  -0.158757  -0.204767
-0.177406  0.173241  0.651698
-0.174775  0.425689 0.0069928
-0.0362033  -0.513379   0.342952
  0.334586  -0.221775 -0.0771176
 0.272485 -0.354534  0.902434
  0.346898 -0.0611198   0.637049
 -0.195677   -0.64008 -0.0947048
  0.13821  0.681239 -0.121042
-0.274187  0.337578 -0.180318
 -0.354612  -0.488393 -0.0860265
 -0.351885 -0.0896625   0.632879
  0.12812 -0.641337  0.890192
 0.309286 -0.497253  0.679255
 -0.380343 -0.0676581   0.206226
0.0613188   0.23606  0.471093
 0.340836 -0.406172  0.754992
-0.334882 -0.297716  0.779928
-0.320161   -0.6285  0.792404
 0.382213 -0.259828  0.143879
-0.0899687    0.79797  -0.190555
 0.463735  0.707751 -0.216643
  0.17029  0.860433 -0.222466
0.0904942  0.289948 -0.665748
-0.315189  0.303979 -0.333961
-0.326797 -0.551412  0.852175
 0.359413  0.740861 -0.297851
 0.117796 -0.506018   0.90755
-0.289229 0.0489651  0.704264
 0.317652 -0.307753  0.845238
 0.374159 -0.271103  0.354876
-0.361636 -0.138627   0.53653
 0.215231  0.640008 -0.478347
-0.0103751  -0.442929   0.109652
-0.295909  0.224049 -0.382833
  0.36205 -0.332025  0.353182
 0.191567 -0.719586  0.722897
 0.331816 0.0581769  0.243442
-0.0857935  -0.632318   0.772747
  0.35642 -0.330747   0.44089
 0.376906 -0.218263 0.0521167
0.0558269  0.148295 -0.574859
 -0.189294 -0.0987613  -0.161827
-0.204789 -0.401311  -0.11247
   0.17209  -0.707231 -0.0201552
   0.36207 -0.0644713   0.397555
-0.133449   0.14182 -0.213759
 0.293882 -0.661393  0.844638
-0.06768 0.239005 0.459733
-0.333072 -0.227906  0.749755
 0.224656  0.324806 -0.102426
  0.261279  -0.656725 -0.0940364
-0.155336 -0.556741  0.152071
 0.131716 -0.510419  0.416795
-0.0213275 -0.0395246    1.02293
-0.0806945   0.222042   0.525039
-0.0033967     -0.526   0.487774
-0.222582 -0.446209  0.374148
  0.150534  -0.545158 -0.0872653
 -0.31543 -0.506686  0.880652
-0.189255  0.230734 0.0158569
 0.166817  0.831128 -0.333651
 0.225591  0.191106 0.0356647
-0.328333 -0.678793 0.0652209
 0.270497 -0.490891 -0.120233
 0.188242 -0.515645  0.927719
-0.00916136     0.39645   -0.635107
 0.146355  0.882495 -0.314231
 0.195593 -0.690315  0.893294
-0.312375 -0.697477 0.0172353
0.382284 0.709346 -0.15535
 0.270397  0.599041 -0.368317
 0.180817 -0.315698 -0.114769
 0.212818 -0.434458  0.282656
 0.194236 -0.710899  0.102009
-0.203575  0.710849 -0.439376
-0.0287629   0.698673 -0.0528352
 0.276134  0.172838 -0.464155
 0.0213942   0.716321 -0.0625105
-0.356809  0.721216 -0.164671
 0.145198  0.114177 -0.404356
-0.140844  -0.15673  0.954562
-0.042822 -0.443581  0.129071
-0.310086 -0.144434  0.820956
-0.00359868    0.351503   -0.660121
-0.202759  0.610745  -0.49573
  0.12243   0.16462 -0.590191
-0.177001 -0.425584  0.923702
-0.187189  -0.34374  0.922275
0.217386  0.16357 -0.56418
-0.369887 -0.039439  0.273693
 0.281157 -0.433331  0.219885
0.0375006  0.399643 0.0469532
-0.394565  0.621837 -0.237726
-0.129443  0.390106 0.0221914
0.0684927 -0.521064  0.388424
-0.0495224  -0.264204   0.945854
 0.258721 -0.305932 -0.117768
-0.314784 -0.523735 -0.110861
-0.347435 -0.246164  0.644807
-0.0422734  -0.524861   0.388167
0.0974762 -0.143255 -0.196982
   0.36201 -0.0956924   0.469804
-0.272117  0.611334  -0.34873
  0.176076 0.00440305   0.923306
-0.352214 -0.436867  0.163084
0.100713  0.21501 0.538412
0.224463 0.250134 0.238483
-0.322079 -0.597436  0.757722
-0.179199 -0.454393  0.551828
 0.333772  0.666483 -0.329851
-0.190157 0.0459095  0.887272
 -0.10886 -0.553823 0.0702883
  0.10816 -0.509084  0.672323
 0.357299 -0.097742  0.565608
 0.296641 -0.583946  0.890828
-0.0890046   0.107892    -0.3886
  0.233361  0.0445246 -0.0838831
0.196194  0.25813 0.305858
-0.218469  0.132793  -0.45573
-0.198852  0.158044  0.649937
 0.151142  0.317604 -0.662344
 -0.27456  0.170423 -0.489795
-0.354271 -0.358257  0.230875
 0.384008 -0.233073  0.174318
 0.319613  -0.69263 0.0213362
-0.171761  0.227852  0.400716
 0.298656 -0.527589  0.184556
-0.172148  0.784092 -0.352284
-0.255759  0.199095  0.250146
-0.187041 -0.462651  0.329703
  0.267772 -0.0167851 -0.0869396
 0.214725  0.758083 -0.279152
-0.303129 -0.570997  0.170426
-0.0844689  -0.331547 -0.0843991
-0.310195 -0.495689  0.680607
 0.383136 -0.194186   0.30899
-0.125207 -0.661131 0.0690591
  0.277995 -0.0645274 -0.0947832
  0.22483  0.907591 -0.265097
0.0878893  0.388377 0.0361463
 0.193953  0.132569 -0.390801
  0.23581 -0.566474 -0.119234
 -0.31185  0.223267 -0.448913
0.159302 0.185372 0.631983
-0.381381 -0.279243  0.080901
 0.333671 -0.362333  0.644722
-0.297749 -0.532341  0.672264
 0.359904  0.724231 -0.314502
-0.356932   0.63297 -0.293168
-0.381019 -0.223851  0.319207
-0.105875 -0.566415  0.057898
  0.244168 -0.0341763   0.887705
-0.163866  0.187218  0.542844
-0.321688 -0.315074  0.840173
-0.0198072  -0.325733   0.905114
-0.375361 -0.242366  0.369042
-0.332527  0.016819  0.393466
-0.286512  0.598306 -0.294932
 0.303982   0.21378 -0.538553
 0.257044 0.0998387  0.665458
   -0.31358 -0.00981666    0.744518
  -0.35727 -0.0994502   0.567547
 0.252043 -0.568947  0.187018
 0.216759 -0.235192  0.919829
  0.11819 -0.697398  0.759341
-0.0435934  -0.529762   0.424442
0.231253 0.230434 0.270867
-0.218296  0.627591 -0.120169
0.0150025 0.0719664 -0.247367
-0.256624  0.107703  0.567502
  0.368857 -0.0990078  0.0776721
-0.098357 -0.135593 -0.198063
 -0.32837 -0.385369   0.49349
-0.242841  0.401992 -0.594555
  0.308394 -0.0684935    0.81283
 0.434696  0.748954 -0.216456
  0.158289  -0.630498 -0.0752258
 -0.24753 -0.424751  0.279205
  0.357976  -0.211422 -0.0313509
 0.209899 0.0660236  0.852546
 0.309012 -0.279365  0.850306
   0.2505  0.609097 -0.457617
-0.0937739   0.153609   0.838508
-0.131888  0.108465 -0.449544
 0.224169 -0.247599 -0.128985
-0.0455594   0.148913  -0.576044
-0.239538  0.213767  0.100359
 0.438737  0.699277 -0.262654
-0.239134 -0.658006  0.163098
-0.325097 0.0486747  0.335426
 0.311375 0.0230452  0.663981
 0.292497 -0.538573      0.67
0.257168  0.17194 0.314047
 0.366651 -0.213567  0.465911
 -0.110586   -0.51553 -0.0373368
-0.291707 -0.432548 -0.116791
-0.219485  0.261588 -0.642739
 0.158812 -0.267443 -0.130668
 0.318473 0.0326389  0.447858
 0.321706 -0.418309  0.866435
-0.198345  0.271032 -0.111683
-0.219435 -0.685159  0.684001
 0.380614 -0.248905 0.0665765
  0.334813  -0.597741 -0.0839008
 0.053465  0.810568 -0.388148
 -0.0790704    0.593946 3.51048e-05
  0.116789  -0.582373 -0.0380611
-0.347065 -0.112003  0.689676
 0.316731  0.379542 -0.479042
-0.184969   0.15139 -0.557629
0.381542 -0.20783 0.110245
-0.000827919     0.233208     0.496645
 0.245941 -0.601749  0.656724
-0.282315  0.222146 -0.582539
 0.273641 -0.596671  0.672593
 -0.138852 -0.0220545   0.957049
  -0.103463   -0.525605 -0.00467828
-0.315459 -0.348382  0.864033
 0.104454  0.629677 -0.506471
 0.316472  0.721621 -0.166839
 0.282842  0.514152 -0.244388
 0.106126  -0.46418 0.0659722
-0.108026 -0.489701  0.665015
-0.0222635  -0.152316   -0.20767
0.0450436 -0.188236 -0.196727
 0.121869  0.388809 0.0250873
  0.239227   0.413307 -0.0691294
  0.345518 -0.0288752   0.457702
-0.248113 -0.719407  0.764632
 0.285565 -0.543272 -0.117285
 0.377857 -0.159844   0.10044
 0.371638 -0.163369  0.419701
 0.292281 -0.706474 0.0705532
  0.383912 -0.0924627   0.189463
  0.29579 0.0452897   0.68069
-0.342721 -0.452548  0.779222
 0.134289 -0.474516  0.567063
-0.252291  0.482503 -0.525982
  0.28052  0.179701 -0.451014
-0.324228 0.0636302  0.101716
 0.266093  0.160994 -0.471501
0.244522 0.100891 0.728722
-0.0996528  -0.402128 -0.0315638
-0.261651  0.584561 -0.441759
 -0.168726   0.298739 -0.0413897
 0.177976  0.275363 -0.655011
 0.302981  0.229959 -0.392312
 0.305854 -0.404447   0.58088
0.129467 0.200901 0.609284
0.0604866 -0.305331  0.927652
-0.265731  0.505083 -0.155391
-0.0336315   0.247395   0.443399
-0.0858026  -0.438932   0.887766
 0.161277  0.234454 -0.642871
 -0.20902   0.43845 -0.582651
-0.255035 -0.120121 -0.123943
-0.188734  -0.63592  0.660084
 -0.26342  0.163637 -0.446703
-0.190331  0.169765  0.546796
 0.142288  0.440345 0.0263822
0.183351 -0.47235 0.500731
-0.125214  0.834869 -0.220153
 0.168323 0.0570518  0.894277
 -0.297737  -0.695437 -0.0343603
0.292763 0.126793 0.270255
 0.385654  0.655507 -0.143982
-0.139852 -0.690217  0.863075
0.080479 0.141457 0.860771
 0.185106  0.205659 -0.181233
-0.161924 -0.708258 0.0655329
 -0.127805  -0.387472 -0.0809828
  0.185374   0.620875 -0.0989981
 0.391839  0.755514 -0.259491
0.324174 0.606501 -0.14429
  0.36673 -0.250804  0.445288
 0.377496 -0.328687  0.141715
 0.415732  0.738105 -0.279857
0.311101 -0.44992 0.198239
-0.245525  0.277361 -0.636969
-0.176601  -0.49978  0.634322
 -0.19673 -0.492687 -0.112254
-0.350908  -0.51446  0.138623
-0.0910645   0.213235   0.642933
0.0894024    0.1031 -0.447774
-0.148035  0.807561 -0.336132
-0.224898 -0.687586  0.887242
 0.374727  -0.14637 0.0890637
-0.0345459   0.430528  -0.611067
 0.200367 -0.440126  0.281992
-0.311405 -0.479011 -0.112695
-0.415756  0.718142 -0.163094
-0.0845349  -0.349403 -0.0652609
-0.115431 0.0631619   -0.1897
0.275681 0.136877 0.328476
  0.100256 -0.0696369  -0.200504
-0.111533  0.089482  -0.19841
 0.171024 -0.457445   0.55407
-0.121406  0.693141 -0.476939
-0.0730213  -0.579747   0.809393
-0.278838   0.56856 -0.325825
-0.120081  0.509099 -0.556032
0.200797 0.177388 0.461999
-0.0886623  0.0120146    0.96098
-0.323617  0.587747 -0.233954
-0.0335763   0.307519   0.289328
0.0206048  0.648246 -0.503899
-0.362403 -0.522214 -0.068894
 0.339717 -0.571084  0.137635
 -0.24791   -0.7273 0.0178924
-0.169307  0.196197 -0.110223
-0.0712912  -0.506331   0.849461
 -0.17978 0.0755493 -0.119114
-0.0125251   0.325704   0.143859
-0.284695 -0.221766 -0.112527
 0.224057 -0.706547  0.862838
-0.360856 -0.182288  0.544283
0.112462 0.732035 -0.14547
 -0.232929   0.398253 -0.0643476
-0.00532906   -0.422755   0.0330568
 0.368761 -0.312015  0.326867
-0.444826  0.702354 -0.157873
0.0631777  0.821957 -0.347126
-0.150076   0.13842 -0.162924
-0.219709  0.854393 -0.279975
  -0.2189  0.728421 -0.383579
 0.0345965   0.642199 -0.0136788
-0.291045 -0.338631  0.887532
-0.333391 -0.511983  0.744695
-0.286436  0.496688 -0.250708
-0.305431 -0.656079  0.773005
