   -3.63941 6.40973e-06      0.9326
-0.180745   4.50419 -0.491671
-1.22528  1.58537 0.984198
    -1.55544 -1.28745e-06    -0.839566
  1.91533 0.0178591   2.28842
-2.86026  1.20842  2.38648
-4.91806  5.70914 0.945878
 3.97742  1.88598 -1.49797
0.0137985   2.55101   1.67868
  2.1942  3.75448 0.669899
     -3.932 1.24322e-05     1.80983
   -2.32325 0.000305016     2.14591
  4.80287  0.803895 0.0288042
1.89097  4.0813  1.0498
-4.10562   6.8588 0.558565
0.694642   2.5608  2.14323
-3.85068  3.13539 0.867212
     1.75845 -4.07602e-06     -1.98243
   1.92296      4.306 -0.0198887
 2.01202  2.99852 -1.96876
-0.897884   3.12825  -1.48323
-0.821897   3.03997   1.34281
-0.704168  0.154232  -2.54269
 -3.94877   2.06977 -0.640763
-4.08903  6.19398 0.686432
-0.574256   3.38777  0.721094
3.09269 1.71275 0.72149
0.801407   4.4884 0.956839
-0.491796   2.47816  0.396035
 0.51823  1.45889 -2.60679
 3.31674 0.469438  1.00876
 2.41454  3.36153 -1.58899
-0.0695982    3.09034   0.536529
 2.2495 4.10028 1.07499
   -3.27207 3.28707e-06    -2.06151
-4.93459  2.39404 0.944492
2.45114 2.79496 0.52545
 3.18252  2.46844 0.217854
0.836907 0.643205 -2.62353
-4.79318  6.89646 0.588513
  3.83129   2.76117 -0.574287
 3.83123  1.64599 -1.41018
  4.70246   1.00247 -0.846212
-4.30864 0.835403  1.72798
  4.76907    0.4699 -0.653743
-0.908865  0.531692  -2.52848
-0.0816105    3.78951   -1.15353
 -4.06041   7.14882 0.0993664
 -5.11128   2.70855 -0.343309
-0.882397   2.56813 -0.328715
2.45264  3.4125 1.32094
0.101838  2.33176  1.61086
 -3.87639   4.13035 -0.346314
  -5.09631    5.16798 -0.0581036
 1.86559  3.81252 0.235808
 -4.40825   6.59159 -0.442471
-0.875435   1.69995   1.41099
   -2.82034 0.000115211     2.36249
 -2.87834     2.344 -0.464713
 -5.09903   1.51994 -0.109277
-3.42321  1.81169 -1.15328
    2.69872 3.59553e-06     1.02979
  -2.89027 6.3574e-06    1.76086
 -2.12129   2.25208 -0.818177
   -1.34783 1.75387e-07   -0.372743
 0.575207   6.38543 -0.141435
0.749794  3.06379 0.955377
 0.81174  5.36373 -1.01625
-2.01481 0.865206  -2.1512
   -2.39876 2.27151e-06    0.564923
  4.78166  0.515178 -0.413342
     1.19506 -1.37073e-06    -0.930914
 1.88129  2.81565 0.197579
   -3.876   4.67347 0.0333775
-0.357049   4.06181    1.2837
-3.22045  1.33315   2.0744
-3.82449  3.84609 0.622699
-0.476237   3.53533  0.714828
    0.361563 -3.44361e-06      -1.3628
  1.45004   5.59087 -0.571879
-4.79592  1.70577 0.945597
0.0462767   4.77341 -0.840576
-0.249859   1.44656  -2.25147
2.00558 4.25085 1.17343
-0.485377   3.92086   1.19394
  -3.87595    5.57862 -0.0699012
  -5.09716    3.05936 -0.0750821
2.41864 3.01578 1.48564
-0.00515205     4.59567    0.548316
-1.68466  2.27935  0.80633
2.07396 3.55358 0.54504
-0.670968   2.53879  -1.97485
 1.89674  4.60515 0.111801
 -4.83752   6.19209 -0.415298
 -3.28012   1.96941 -0.939545
-1.00445 0.708269 -2.51467
-4.82913  0.09207  1.35394
   -4.04914 1.22512e-06    0.292538
 4.74908 0.137951 -1.05634
  3.1904  1.57816 0.738961
1.60913 1.14513 2.32908
 1.55549  3.63546 -1.26907
1.88982 1.61629 1.83619
-2.56103  1.10782  2.36539
 3.01205  1.10993 -2.28283
-0.584016   1.90505    1.9905
-1.37969  2.36176 0.645371
 3.31033 0.949492 0.864211
  1.9923  1.17798 -2.68292
 2.5501  2.7137 1.53954
0.462505  2.40816  2.13739
   -1.62517 2.56672e-06    0.577639
  1.85893   4.05311 -0.516013
 2.84307  2.22329 -1.12128
-1.55657   1.5625  -1.7631
-3.10809  1.04523 -2.46092
 1.89316  3.07531 0.159608
 1.28418  4.53083 0.862198
-5.06277  3.25163 0.581855
-4.47331 0.120748 -1.43924
2.64233 2.27569 1.74735
-0.662425   2.55202  0.272012
        2.07 -1.84251e-06     -1.02834
  4.04159   2.76106 -0.668324
    -2.8652 2.35191e-06    0.588771
-3.30035 0.149575  2.53495
-2.79087  1.61309 -1.76019
0.145901   3.4723 0.869546
2.56213 1.81507 -1.8186
0.458665  3.81007 -1.14564
   -1.81866 4.76218e-07    -1.98602
 3.77783  1.69137 -1.23777
0.407162 0.343619 -2.60098
   -2.64142 4.05329e-06     1.21343
-0.436113   2.51024   1.82992
-5.06372    1.939  0.56216
-0.152758  0.782473   -2.5716
   0.395271 7.28106e-06     1.68661
 3.83155 0.587366 -1.41868
 2.51133  3.00332 -1.12419
 4.28729  1.24187 0.489379
 -5.08954   5.68646 0.0711455
-0.749972   3.34796   1.29783
 1.20169  2.44095 -1.76658
    0.130707 -3.79534e-06     -1.65619
  3.3314 0.828355  1.28935
   0.754287 4.57297e-06    0.934967
-0.193174   4.05031 -0.455703
  2.27365    3.2613 -0.945034
  -2.61951 0.00017783    2.44563
 2.44062  2.48187 0.234293
   -2.21116 0.000600527      1.9744
 1.91037  4.16151 -1.56061
-0.829215    1.3561   2.19944
-0.532247   3.11254  -0.70513
-0.554077   0.28628  -2.55057
  1.08211 0.0030736  -2.53021
-0.188382   2.98669   1.70413
 2.38063  2.68088 -1.93319
0.219928 0.373702  2.40201
     1.01682 -2.45676e-06     -1.19423
 1.17396  5.35126 0.699829
-5.06854  6.66551 0.059826
-5.07324  4.79094 0.381428
    2.04877 2.08841e-06    0.474126
  -4.6143 0.0662844  -1.26406
 1.94937  1.44508 -2.44058
 -3.2983  1.85276 -1.16387
  -3.87595    3.78557 -0.0875285
 3.13124 0.129248  1.79607
-3.86221  4.62649 0.240108
 0.43321  4.00231 0.878242
  1.16206   6.04519 0.0280899
-0.27421  3.84026  1.40797
 1.5319 3.16346 1.08915
   0.327287 3.67741e-07    -2.27725
0.242651  3.26372 0.947002
-0.0845117    2.14319    -2.1748
 -5.09165   2.17518 0.0312464
-2.88417 0.277416  2.70105
-4.53883  3.19816 0.938354
-0.720865   1.84558  -2.08825
-0.869793   2.63299   1.01747
-0.353897  0.954718   2.43207
-4.65032 0.177145  1.50747
-0.968085    2.8241  -1.48779
0.435533  2.54744 -2.41735
-5.10008  3.25765 -0.13165
  1.36852   5.54294 -0.709338
 1.89384  2.98273 0.155319
 -3.8666  4.75989 0.878405
-3.89373  2.35035 -0.58861
     4.09594 -7.74889e-07     -1.21024
-1.01866   1.8954 -1.32654
-2.31339  2.30057 0.779989
-3.81219  2.22103 0.767789
 -4.1992 0.175697 -2.01405
 3.32602 0.275347  1.18593
1.78896 1.97124 1.87611
0.237922  3.54644 -1.03384
 -4.5214  4.69344 0.937879
 -4.41379   8.26517 0.0418744
0.208358   1.1012  2.40257
 1.31176  2.78452 0.854465
   -2.20799 5.43657e-06     1.52046
  1.91255   4.21149 -0.319797
   1.87979    4.86013 -0.0951491
     2.66507 -1.87907e-06     -1.06595
-5.06373  1.36647 0.563021
-3.39138  1.56794  1.73714
-0.863744   2.31898   1.16677
-1.21092  1.44528 -1.36646
-4.89024  2.25649 0.945306
-3.40269  1.90672  1.07045
-2.1058 1.81839 1.55855
-0.815801   2.72827   1.41937
-1.24834  1.44555  1.15798
-4.27008   5.3933  0.92904
2.70871 1.60618 1.12002
0.833937   1.1289  2.36976
0.236413  1.96763  2.39207
0.291052  3.13468  1.10196
 2.42625  3.44252 -1.25803
-5.05379  3.67836 0.734608
 2.50779  3.06069 -1.53801
 1.30219  1.21063 -2.64792
 4.27683 0.989833 0.925123
0.141112  1.63729  2.14221
  -5.0984  0.530717 -0.536184
 -4.29699   7.26437 -0.181899
  4.19371   1.66185 -0.251893
    -1.01155 -3.21971e-06     -1.37518
    -1.5152 2.07287e-06    0.419398
  2.31369   2.98005 -0.887693
 3.16799 0.355545 -1.82618
 2.83808   2.1928 0.681847
-4.88885  1.74526 -0.60328
   3.00737 3.1396e-05   -1.34317
 2.18046 0.116944  2.29658
-1.84094  1.09033  2.18729
 2.95487 0.723649  1.80607
-0.977919   2.35595  0.634584
 2.29295   -5e-06 -2.29793
0.843774  4.06605  0.96062
    1.87805 3.91511e-06    0.999989
-0.716783   1.42092  -2.48926
 3.83862 0.130476 -1.47041
-4.04755  6.83946 -0.20483
-0.298402   2.68338   1.72049
  -0.681891 0.000300048     2.14941
 2.26686  4.23079 0.996315
-4.91445  3.74128 0.943229
0.893944  2.10135  -2.6265
 -4.80458   5.72118 -0.609846
-1.20103   1.5744 -1.02312
-1.09355  2.57225 0.258928
-0.223977   2.53814  -1.84957
 1.76247 0.804241 -2.67207
  -5.085  3.68725 0.157104
-0.797917   2.39076   1.44176
 -3.38284   2.03397 -0.705739
 -4.99151     6.737 -0.142103
     4.05699 -1.73838e-07    -0.527572
-0.168532   4.90397  0.150021
   -3.81676 1.08598e-05     1.45698
-1.79767 0.827185  2.18508
     4.39798 -2.33399e-06     -1.12885
 1.34474  3.68958 -1.09279
   -2.63673 1.43338e-05    -2.02006
1.53718 1.54512 2.33276
-4.86236  7.24753 0.172255
 4.36597  1.98171 0.714416
  -4.7152    6.0764 -0.612199
 4.21928  1.70725 0.467724
    2.06147 1.28421e-06   0.0910738
-0.772788   2.74112  -0.78701
    -2.7463 3.19427e-06    0.966615
 -4.94297   3.53429 -0.598441
 -0.242476    4.42143 -0.0191342
   4.79902   0.307131 -0.0831824
  2.31761   2.57987 -0.881646
-5.05233  1.29784 0.753991
 -4.9324  4.45078 0.943604
0.961731  4.91886 -1.15549
    2.91449 3.36708e-06    0.921487
  -1.02281 0.00884437   -2.37643
 1.47648  3.44879 -1.47816
   -1.16385 8.65921e-06    -1.71993
1.49016 2.81908 1.19493
-3.81996   3.0573 0.689054
    3.91347 8.81646e-06   0.0468028
   0.525287 8.99907e-06     1.98843
1.92858 3.23251 1.51653
   2.23251 0.00121036    2.09871
-3.86877  5.98966 0.183716
   -4.61735 1.92996e-06     -0.3668
-0.539354   2.97846  0.557104
-3.88106 0.943527  2.30699
  4.53312   1.02338 -0.929683
   -3.33259 2.29396e-05     2.19925
   -3.27973 6.28075e-07  -0.0697371
   -3.66865 1.34486e-06    0.257136
3.87513 1.20302 -1.4783
 3.34188 0.436113  1.49037
 0.339639 0.0187708  -2.57365
    0.467992 -3.14187e-06     -1.24218
-3.96543  6.18479 0.799509
-1.49735   1.2974  2.16694
-3.82115 0.772692 -2.10545
 0.384567   5.22425 -0.961657
0.101203  4.29054 0.670178
 -4.22047   4.74037 -0.648742
1.57477  4.8169 0.62744
 -3.87892   3.67298 -0.480315
 2.34618  1.44232 -2.53492
 -4.35329   1.61691 -0.648516
  1.24172     5.502 -0.834485
-3.83778   3.2652 0.494613
-2.08783  1.65042 -1.77285
 1.35467  2.85336 -1.32595
    0.732515 -4.94752e-06      -2.0927
  3.30937 0.0505134  0.880243
 2.31783  3.22995 -1.77069
  -4.2408   6.53869 -0.399519
   -3.43135 -1.5348e-06    -1.82051
-4.11526  7.27427 0.220258
 -5.10478   1.80938 -0.218845
    1.47052 4.83506e-06     1.24658
   -2.58526 3.37027e-06     1.03557
 -1.0447  2.19515 -1.76671
3.68483 2.29348 0.49879
   -3.10527 2.10285e-06     0.45687
-1.01614  1.44805  1.52972
 4.14237  1.89073 -1.49207
 1.22463  2.41891 -1.95851
   -3.70389 8.73925e-07      0.1103
 3.32004 0.192042  1.07261
 -0.0294027 3.35146e-06    0.781693
    4.44304 5.39472e-06  -0.0534157
  4.10087    1.3282 -0.682386
 2.30762  3.91874 0.968906
   -3.48  1.34533 -1.86517
  1.8415  3.02803 -1.94634
-5.06545  3.31658 0.530705
-1.96463 0.487415 -2.15387
 4.81587 0.511063 0.235772
 3.36451 0.269265 0.712635
   -3.41788 8.62616e-06     1.51386
 -5.10793   1.92197 -0.515964
   -1.36986 -3.4009e-07    -1.65643
 -4.33389   2.19379 -0.642647
 -4.68308   4.67755 -0.619471
1.95637 2.73922 1.59527
0.271003  4.54503 0.795879
     -1.969 9.45251e-07  -0.0173511
2.55652 1.95318 -2.0928
2.47317  3.1545  1.3802
-2.10539  1.87485  1.46928
 4.22976  2.46758 -1.25475
2.29741  1.4334 -2.6301
  3.7164  2.40234 -0.86357
1.35911   2.568 -1.2175
3.33598 1.05061 1.37749
   -0.406449 -3.52838e-06     -1.60486
   -2.19 0.831347 -2.14213
  3.8361 0.486356 -1.46451
   -2.67498 1.64594e-06    0.265317
 -5.0839  2.52748 0.179526
-3.72644  1.72265 -1.07227
-3.44494  1.71153  1.42977
-2.44074  2.29994 0.768723
 1.59628  4.23186 0.657743
0.852684  2.21273  2.36881
2.26386 1.87406 1.82228
2.71532  1.9204 1.26135
-0.772561   2.38512   1.60453
-5.07418  6.44887 0.132513
-4.57759  2.40703 0.939599
-2.28778 0.550138  2.24944
-0.220321    3.5098 0.0978679
 4.12723  2.37504 0.238839
  3.9527  1.63607 0.849512
 2.40383  3.56775 0.700786
-3.68699  2.00313  0.16189
0.499485 0.513172  2.38732
  3.2575 0.268365  1.78464
-3.40372  1.07913    2.123
-4.54216  1.23545  1.13573
-0.446545   4.46601   1.13765
 -5.02858   5.65698 -0.585663
-0.401176   3.91133  -1.48999
  3.16699 0.0356561  -1.73785
-0.990695   2.74797  -1.29915
  -0.0434173 -1.01752e-06    -0.574436
  1.68581   3.55964 -0.814264
   -3.88658 -2.1696e-06    -1.08624
   3.231   1.1103 -1.24655
0.020718  3.30173 -1.57808
 4.83951 0.378716 -1.39882
 4.15722 0.646158 0.940151
  -5.09576    1.22445 -0.0471203
   -2.78044 2.55733e-06    0.690778
   4.19815    2.44625 -0.0684766
    4.1939    2.15594 -0.0203318
-4.94356 0.500016 -1.02561
    -1.06308 -2.10076e-06     -1.07093
 2.53446 0.629144 -2.34251
2.04152 2.92084 1.59362
0.237197  2.25497  2.16398
-3.57414 0.707916 -2.32055
    1.89682 1.57391e-07   -0.469619
1.09469 2.51236 -1.7645
-3.86972  3.50414  0.14141
    -3.12531 -2.45497e-06     -1.03102
 2.97765  1.43984 -2.18474
 2.45997   3.1939 0.606682
    4.04738 -9.0058e-07   -0.656499
 -4.12599   3.27529 -0.648961
  -4.63578 6.0455e-06    0.11831
    4.48951 1.04356e-05    0.110332
 1.97544  3.44124 -0.88523
     1.4673 4.20973e-06     1.02996
    -2.78858 -2.42714e-06     -1.11934
 2.88725 0.549078 -2.27796
 1.77333  3.70007 0.430403
 2.0287 2.09347 1.82639
0.634927  2.67395 -2.34399
 4.94722  0.22373 0.659745
 4.80897 0.977859 -1.25609
    -2.0564 3.98639e-07   -0.199324
 2.04623  2.95748 0.399202
 2.93459  1.44489 -1.90864
 2.61398  1.46114 -1.79366
0.0930301   5.04499 -0.807179
-4.30527  3.93957 0.931415
0.990776 0.444145 -2.63161
   -3.23545 -1.0099e-07   -0.310292
1.66692 2.44032 1.43283
-5.05022  2.60115 0.768444
     1.45103 -3.65847e-06     -1.66016
 4.08995  1.56386 -1.03964
  2.97965   2.69256 -0.176569
-0.422323  0.895562  -2.55747
     1.91671 -3.31692e-06     -1.70027
    -3.95817 -5.53159e-07    -0.391934
-1.75875   2.0956 -1.09211
  1.81224   2.60357 -0.739447
     4.6071 1.36846e-05    0.286794
1.83205 3.87042 -1.1347
 -3.87984   3.06003 -0.487858
 1.43808  3.80406 0.787039
 1.81561  3.38422 0.556656
 3.05504  2.33112 0.466628
 1.81846  4.42781 0.355062
-1.03335  1.01376 -2.49582
  -0.200806 -3.9372e-06    -1.77958
-0.0879555    2.66146   -1.78235
0.534925  4.99177 -1.10673
2.46695 3.55443 1.21599
 -4.01176   1.75719 -0.667025
1.04241 2.66353 1.70803
0.801703  6.51477 0.134836
 -1.39786    2.5897 -0.263335
 -3.57327   2.06035 -0.243032
 2.7222 1.82108 1.78992
-2.08885  2.55217 0.345907
 1.52052  2.18768 -2.23813
-4.08734  2.55657 0.916342
 1.20968  4.92378 0.841541
 2.09968  3.89787 -1.17485
 1.72083  3.83023 -1.18567
-4.26809  4.91155 0.928761
-4.46303  5.18591 0.936327
-0.889638   2.88214  -1.59097
1.46449 4.11553 0.76661
 1.71639   4.7506 0.471464
-1.6818 1.67206 1.77051
    1.38998 1.88676e-06    0.305248
 -2.20719   2.15674 -0.970993
-0.208258   2.76879  0.162292
 -4.37168   3.07786 -0.641858
-3.03406  1.40259  2.11536
 4.36324  1.02398 0.186893
0.00842956    3.82593   0.997507
 4.85911 0.840546 0.528738
0.566179  1.65159  2.38379
0.386064  2.49035 -2.55723
 2.6763 2.71383 1.05911
    2.37685 1.84357e-07   -0.458319
-0.996414   2.39507  -1.75161
   -1.31467 3.78142e-07   -0.296446
   -2.39905 2.74935e-06    0.819685
-0.948472   1.50516  -2.08623
0.0910731   3.48239   1.43135
-4.46293 0.235407  1.57505
   0.432857 3.05592e-06    0.624822
-4.76697  7.00206  0.55073
 2.11389  2.36161 -2.11095
 4.09372  2.34677 0.905931
 3.46424  1.94961 0.679487
    1.99014 -2.1157e-06    -1.14622
   0.791899 5.14149e-06     1.19198
2.54362 2.39901 0.38072
2.51823 1.26728 -2.4777
-3.86189  3.41231 0.232219
  2.5163  1.36019 -2.37511
 -4.14372   2.69658 -0.648798
-5.06524  2.69892 0.528025
 -4.92496   6.47287 -0.245992
-0.760621   2.35958  0.627722
2.75313  1.4679 1.31374
     1.62237 -1.21174e-06    -0.899304
1.86102 1.44555 -2.3288
 -5.04083 0.0206466  0.522672
 4.82011 0.219068 0.315317
-4.30638  1.40289  1.19734
    0.586633 -2.26461e-06    -0.999932
 -4.71683   1.20779 -0.756725
-5.07789  1.97223 0.293401
-1.34123   1.1266  2.07663
-4.60816  7.64959 0.330389
-0.899038   3.32378  -1.36356
     3.33245 -7.58332e-07    -0.461519
  -0.590981 3.06217e-06    0.887265
  2.99668   2.54534 0.0915181
 0.55897  3.84573 0.921912
0.186319  2.36743 -1.94834
    1.15184 5.32562e-06      1.5009
 1.6506 2.97242 -1.9171
 1.91527  4.49705 -1.53915
0.578195  5.64428 0.554992
  1.61912   3.82367 -0.887788
-1.38752  1.52973  1.28312
 -5.0856  1.68497 0.146212
 0.678259   6.78971 -0.315372
     2.20162 -2.33679e-06     -1.22122
-4.47027 0.837667 -1.34427
 3.16684 0.570005 -1.84765
-0.196144   1.61032  -2.09321
2.52882 3.51618  1.0875
 2.0599 2.33282  1.6019
-0.0162029    4.07938  -0.793446
   0.750571 3.04114e-05     2.08008
2.75195 1.22108 1.96323
0.351962  2.95005 -1.09801
-3.55416  0.54929 -2.34797
   2.74664 0.00215215    1.71241
-2.6116 1.40747 2.16842
4.18559 2.46935 0.88285
   -3.41602 0.000323573     -2.2981
0.842104   1.8721  2.36934
-0.466485   3.35234 -0.742108
0.352361  3.63686  -1.0942
   -0.382419 -2.83156e-06     -2.04425
-3.85217  4.11376 0.335796
  4.32212 0.0102037  0.878866
0.807458   3.9089 -1.21612
 2.19518  3.54575 0.558175
-3.68804 0.955671 -2.10437
  -0.595161 5.36784e-06     1.54985
  -5.09722    4.15926 -0.0759026
-1.43587  2.13779  1.01181
 1.13006 0.584212 -2.63891
2.76777  1.1161 1.86064
-0.0780926     1.7604   -2.52655
 -4.40511    8.2468 0.0364478
-0.825236   2.41178   1.79021
-0.195143   3.94276  -1.14741
 4.48286  1.27938 -1.41192
2.50771  1.2009 2.28184
-0.139257  0.595853   2.42083
  2.7125  2.10123 -1.16571
   4.34705 1.7158e-06  -0.233664
 4.20427 0.806796 0.937519
 1.74502  1.44258 -2.56911
    1.95237 2.85094e-06    0.689529
   -2.37274 -1.4115e-06    -1.76576
3.02231 1.44476 1.60294
 4.76588  1.26236 0.805081
 4.24532  1.48543 -1.38778
 4.24512  1.85259 -1.20343
  4.3641  1.58257 0.812943
-4.28264  8.00956 0.194764
 -0.359068 0.00024118   -2.35252
   0.822194 1.51792e-05     1.96266
     1.77232 -2.51476e-06      -1.3737
 4.13424  1.70625 0.230354
   1.6918   4.88929 -0.718517
  4.77922  0.658146 -0.459376
-2.76421 0.340424 -2.45032
  4.09815   3.12752 -0.389782
-0.103464    4.1405   1.21809
 1.98825  2.13821 -2.19911
   -2.51977 5.18537e-06     1.45924
   -4.65884 3.56467e-05     1.29102
 -4.96935   2.91035 -0.592735
-4.34248    1.232  1.24939
 2.42679  1.46966 -2.28418
   -2.93919 0.000318831     2.58058
 -1.47531 0.0001583   1.93598
   -1.87125 2.12062e-06    0.407739
-0.97417  2.59563 -1.04443
 4.31293  1.04729 0.458967
   -4.08467 -1.2885e-07   -0.274913
-2.97169   2.0317 -1.00442
-4.39468   0.1756 -1.81171
   -5.084  0.206886 -0.570027
   -3.87554     3.57596 -0.00823978
-3.98738  3.37002  0.90445
0.795268  4.36121 -1.21791
 -5.09004    2.2625 -0.551425
-0.212374   4.76236 -0.318234
-4.13289  1.75193 0.921852
-4.83485  3.81961 -0.60766
 -4.99488    1.6403 -0.594135
-0.799626  0.111414   2.40206
    1.57973 6.12667e-06     1.70607
 2.01527 0.806316 -2.68535
 3.16481 0.939783 -1.88688
-0.880765   1.76532   1.30195
0.646635   6.0003 0.245768
 3.52833 0.575897 0.675601
  -2.00597 0.00420067    2.11888
  3.3274 0.718495  1.21271
-4.72796  6.30391 0.703152
-3.84031   2.2669 0.462565
-3.93903  4.75257 0.899696
-0.335395    4.2667   0.93953
0.326345  1.62215 -2.59671
-0.119417   3.05716   1.68179
   3.5176 1.653e-05  0.392514
-0.952217   3.10133  -1.23394
   -4.04175 8.98777e-07    0.151476
 1.95185  1.30128 -2.67895
-2.5611 1.70555 1.73118
0.74391 2.70175 -1.5503
 2.25207  3.14567 -1.83653
   -0.204256 -1.94766e-06    -0.892629
 -4.4436  2.80813 0.935607
    1.43365 3.80783e-06    0.893607
   -1.15267 1.24302e-05     1.55136
   4.0144    2.8603 0.0595666
-4.65369 0.537761 -1.25319
-2.39229  1.98785  1.28989
   1.44443 3.8345e-07  -0.371474
    -1.65838 -3.67996e-06     -1.57056
-3.81339  4.43163 0.751857
-3.85627  5.90185 0.305156
 -2.0037 0.585095  2.19595
  1.07548 0.0630788   2.35416
-2.32928  1.63899  1.85068
0.0531331   3.90906  0.620075
0.301822  2.42938 -1.43595
 3.68269  1.86594 0.664872
 -5.11175    3.1821 -0.432286
   -3.82912 5.13929e-06    0.837333
 3.07092 0.538107 -2.27506
-1.06038  1.59463  -1.7527
2.71296 1.49687 1.80082
-4.54185 0.705592  1.55552
    0.552543 -5.24767e-08    -0.299518
   -0.919072 -3.14177e-06      -1.5261
 -3.00264   2.11538 -0.839315
     -4.3131 -1.10966e-06    -0.728074
 4.82446  0.57186 0.373832
  4.54899   1.02334 -0.183481
     2.48006 -3.55912e-06     -1.83428
    2.84051 4.34233e-07    -0.16541
-4.09675 0.686661 -2.06787
 0.43218  2.51558 -1.54577
   4.20368    1.26171 -0.0911063
    3.65997 0.000328625    -1.03103
-1.02716   1.8951 -1.44063
    -1.39005 -2.44197e-06     -1.17942
-1.71492  2.01467 -1.21881
-4.21243 0.428612  2.06264
 -5.11138   3.82566 -0.349136
1.08202  2.4119 2.35671
  -0.123395 1.80511e-06    0.322052
    -3.76221 -7.32152e-07      -1.9083
 -2.04015   2.65492 -0.112568
1.50086 2.35864 1.58312
   -0.586205 -3.63152e-06     -1.78905
 4.31648   0.8474 -1.48984
  1.76888    3.6523 -0.703875
1.29776 1.76889 2.34547
0.985828  2.69413  1.35841
 -4.3501   3.7469 0.932642
  1.1822  5.77623 0.395968
    -3.21214 -2.20059e-06    -0.919395
   -0.606746 -3.82245e-06     -1.52248
 -3.87722   4.03291 -0.401658
   -1.55613 2.81541e-05     1.79784
-4.73368  3.08457 0.943968
0.0979899   4.64974 -0.911161
 3.74224 0.079309 0.660294
  2.24767   2.70607 -0.198488
-4.88961  1.15353 0.948895
0.915187  3.65645 -1.21122
  1.56651   5.18662 -0.750609
 4.48632  1.24617 -1.30073
 -5.09982  0.585997 -0.124415
-4.01481  1.22476 -1.72955
  4.16425   2.52762 -0.588893
0.842395  1.03228  -2.6238
 1.66692  2.60664 -1.93088
1.10534 1.27378 2.35551
-5.05084  4.51314  0.76396
 0.19484  5.67981 0.155421
  -4.0188   1.78797 -0.656577
0.762637  6.80557 0.102814
-1.53963  1.42376 -2.02237
 1.99961  3.63506 -1.78014
-5.07125  4.42871 0.416445
-5.02252  3.26933  0.89813
0.0663518   4.25495 -0.890868
-0.724379   3.04383   1.47731
-0.548132   1.60718  -2.07778
1.40652 2.41469 1.31661
-3.65706  1.19789  2.03195
0.967812 0.676822  2.36275
 2.20986  1.71893 -2.24125
  1.68525   4.04455 -0.809539
   -0.642197 -1.11439e-07    -0.329041
  1.89139   3.76005 -0.424536
-3.90152  1.71469 0.983476
  4.07946   1.92813 -0.800227
 3.03181  1.44121 -1.75968
    4.12805 1.94812e-06    0.220413
-0.452171    2.7478  0.531825
 2.70369 0.186929 -2.27058
0.120409  2.31831 -1.74354
-2.57525 0.130869  2.61374
  -0.901033 0.000934126     1.92439
 -3.87654   2.19927 -0.309714
 -4.19485   3.58275 -0.648349
 4.04632  2.08322 -1.50879
-4.03496  2.88729 0.910185
 2.47004  2.53898 -1.71296
 1.18651  2.39918 -2.58701
 1.08966  1.67914 -2.63676
 -5.10499    3.9164 -0.226172
  1.07959   5.79629 -0.687526
0.211444  5.61648 0.277262
-0.938276   1.46794   1.03569
 -4.36611   3.61118 -0.641446
-4.67697   1.3439 0.944125
    1.47197 4.46721e-06     1.11971
-4.43169  2.40743 0.935416
 0.165805   3.53194 -0.976771
 -5.10815   4.50002 -0.289788
-3.68098  1.85107 0.898316
-2.24208  0.28917  2.21833
 2.24057  1.54272 -2.24625
 1.48067  1.16574 -2.65725
-5.06184  6.01046 0.592504
    -2.10383 -1.12491e-06    -0.678219
 2.71085 0.139881  2.25241
    -1.26526 -4.00793e-07    -0.552331
   -3.30655 7.29571e-06     1.64982
 -1.98361    2.5285 -0.340769
    -1.73902 -2.91081e-06     -1.32488
 3.64134  1.26205 -1.21708
0.401277  4.65491 0.860888
 1.09707  4.92877 0.873455
    -4.22461 -6.50812e-07    -0.505654
-2.36024  2.53127 0.372034
2.56047 1.75967 -2.0232
   -4.73913 2.61572e-05     1.09571
 -5.02411    6.2629 -0.111825
-1.06585   1.4483 -2.03619
 -4.9983   4.0653 0.923138
   -4.55561 2.76849e-06    0.760895
-4.62411  3.73758 0.940905
-5.05844  5.31578 0.649945
-0.533286   3.82743  -1.51142
 3.08472  1.43873 -1.57112
 -1.7877  2.57893 0.282218
-1.06502 0.376861  2.01847
 -4.10966   6.71619 -0.317638
-1.46501  1.01646  2.16483
-3.82676  5.80381 0.592836
 0.708917   5.78647 -0.736577
 4.15085  0.19256 0.941946
-4.2553 1.00179 1.66042
  1.50073   5.70438 0.0146825
0.867576  2.63684 -2.46801
 -1.69996   2.21099 -0.913396
    -2.07069 -1.32095e-06    -0.750555
-1.49337 0.301512  2.16844
  -0.214666 3.23015e-06    0.836248
 -4.36646 0.0433776    1.5856
0.772007  5.07583 0.866935
 4.3296  1.3205 0.51995
 2.49108  2.49418 -1.68647
0.626948  3.95583 0.940177
   2.95886    2.64834 -0.0944098
 0.760272   7.22192 -0.120651
 4.18264  2.37846 -1.45676
2.02171 3.54023 1.44612
 -1.21463   2.45347 -0.513628
   -3.08139 7.59501e-06     1.46797
    0.919205 -4.28412e-06     -1.72775
    -2.76142 -2.12073e-06      -0.9241
  4.77402 0.0905667 -0.498396
-4.68517 0.451955   1.4855
   -4.1475    7.22929 -0.0554915
   4.0674   2.44199 -0.813791
0.140502  2.62591 -1.57248
4.35552 1.49477 0.64283
-0.0620549    3.51824    1.53106
1.74884 3.00593 1.48961
   -4.34391 6.02509e-06     1.10496
-3.20204 0.407004  2.61326
   -0.18315 2.44559e-06    0.559756
  2.1719 0.734218 -2.69356
  4.76127  0.399473 -0.803092
 3.12205  0.94159 -2.23448
-3.40608  2.14242 0.427061
 -4.95478   4.29201 -0.595816
-3.11569 0.206293  2.65553
-1.37845  1.10789    2.122
 0.721811    6.0295 -0.496233
  4.9027  1.36986 0.622127
2.38056 1.11219 2.28863
-1.22767 0.408878 -2.06269
  3.3567   1.2636 0.721078
  4.74834  0.977254 -0.557264
-2.48132  1.82146 -1.46666
 2.6442 2.27862 1.41846
2.22366  3.1401 1.53279
    2.75743 -4.1831e-07   -0.458009
 -5.11283   4.96352 -0.383149
-1.07158 0.532998 -2.14853
-5.06867 0.022099 0.137531
-4.37191 0.500556 -1.85104
    -4.33741 -5.29524e-07     -0.55626
 1.50401  3.41495 -1.00295
    -3.6018 7.89024e-06     1.15479
1.71387 3.28991 1.38013
  -5.0913   0.58696 0.0379883
 1.24814  3.20759 -1.13613
-4.95418 0.615598  1.07294
 -1.62183   2.57595 -0.276068
-0.242803   4.47622 -0.066631
 -5.11044   4.12766 -0.419744
  1.5671    3.428 0.692597
-3.98335  6.86982 0.381567
-0.172114   4.98364  0.050474
 1.76178  4.38371 -1.37775
 -0.245812    3.13747 -0.0461238
   -1.95269 1.19379e-06    0.063961
  1.73817   4.27666 -0.741727
   -4.28062 2.93553e-06    0.729859
-0.738122   2.63874  0.122579
   -4.62387 9.82019e-06    -0.17774
 2.49472 0.725696  -2.6468
1.33672 2.48652 2.23147
     1.68013 -2.95817e-06     -1.51742
-0.65557  2.72127  1.80299
-3.90816  5.26907 -0.60587
 -2.40823    2.6321 -0.109585
  2.34853   2.63451 -0.380774
   0.347733 1.67636e-05     2.20217
-1.82615 0.919072  2.18657
 -4.44779    5.5384 -0.636409
  -4.6991   5.36582 -0.618207
 1.40976  3.15881 -1.48834
    -1.44276 -6.67555e-07    -0.650322
 2.75737 0.224082   1.8929
    2.04438 -2.9524e-06    -1.54474
 -4.23432   2.73873 -0.648105
0.134829   5.0402 0.600175
0.150889  1.54132  2.29827
  -0.491312 2.90987e-07   -0.215615
-0.090483   1.88007   1.93973
   -4.13647 -1.9377e-06    -1.19582
-3.10695   2.3492 0.196172
2.98853 1.36271 1.79409
0.139115  2.34392 -2.16886
    2.17299 4.45891e-06     1.20633
-0.575239   4.38426  -1.28406
   -0.115741 -1.97302e-06     -2.21554
3.17153 1.17661 1.79104
  1.88704   3.99465 -0.438771
    4.7994   0.794863 -0.0407772
-2.54918  2.36388 -0.55835
 1.92602  2.42213 -1.97166
    -2.52362 -3.09993e-06     -1.54168
  -0.226609      4.7314 -0.00227805
 2.13418 0.443575 -2.69154
  4.19458    1.4903 -0.235579
0.235933  4.29618 -1.03416
-0.202949   4.29589  -1.29205
 1.02744  2.56051 -1.67014
 4.81539 0.908659 0.316602
-2.75622 0.885366  -2.4425
0.684263  5.54431 0.649145
-0.147596   3.52381  0.318831
 2.89784  2.38713 0.376251
 4.04506  1.96473 0.876845
-2.80021  2.49704 0.263026
0.313968  3.02022 0.922752
-0.495386   2.03208   1.98394
2.44641 2.34525 -2.1622
 -5.10315     2.795 -0.188199
 3.2924 1.20854 1.76872
  1.49473   4.65621 -0.981233
  4.15507   2.16425 -0.612665
0.571959  2.63853 -1.20322
2.01303 4.32499   -1.19
   -1.18563 8.67882e-07  -0.0893059
1.76862 1.92379 2.04286
 2.97694 0.248852 -2.28117
 2.89472  1.83708 0.707642
    0.831389 -4.79145e-07    -0.381432
-4.87946 0.619998  1.27923
 2.70977  2.13102 0.753617
4.71109 1.35055 -1.2905
 2.28962  2.04426 -2.24632
-3.90181  1.59421  1.27473
   -1.33831 3.59327e-06    0.978542
  2.81394 0.0172101   1.78647
 -4.02338   5.14053 -0.647253
 2.57067  1.78726 -1.48527
    1.36446 1.37123e-06   0.0676989
 2.61485  2.42934 0.683228
    1.69403 1.60081e-06    0.222148
 -3.87645   4.23821 -0.316065
 4.11846  2.39614 0.485497
  3.00162   2.31605 -0.975962
 1.44951  2.24019 -2.53219
-5.07741  1.04952 0.302046
 2.62784 0.290635  2.27245
  2.75282 0.0539469   2.08128
 3.33356 0.211333 0.741702
-3.83944  1.33352 -1.65964
-2.59178  2.61114  0.18581
    0.393132 -4.41499e-06     -1.89308
-1.44274 0.146192  -2.0528
-0.931898   3.12972  -1.10283
 3.31196 0.876154 0.909377
  -5.0888    1.9641 0.0854257
    3.18614 7.70003e-05     1.60298
 -2.14438    2.5413 -0.306905
  2.22862   2.45744 -0.695241
-1.01342 0.819139  2.01505
0.323123  2.13294  2.39313
-0.835564  0.832275  -2.53492
-1.03012  1.62078 -1.52133
 -3.8457  2.61883 0.411053
  4.1429  1.77872 0.090473
 2.80036  1.39064 -2.25312
0.692164  4.40161 -1.20389
    0.705963 -4.05839e-06     -1.64218
    -2.3778 3.33042e-06     1.03855
-1.71162  1.68847  1.74635
-5.04652   4.1803 0.830533
  4.78697 0.0364099 -0.157532
-0.62914  3.41826 -1.68408
-0.0561005  0.0152895    2.38647
-4.72313   7.1266 0.517638
  4.76606 0.0163394  -1.46352
-4.01525  5.36958 0.908268
 3.31311 0.590411 0.934256
 2.38381  1.66912 -2.25095
-4.38698  6.53228 0.746855
 -0.0644693 4.42034e-06     1.06483
  -0.675639 3.87826e-05    -2.27159
-3.50169  2.11646 0.134799
-0.266848   4.52588  -1.35571
   0.949531 4.49258e-09   -0.168601
  4.41247 0.0070298  -1.44892
   -0.311041 -2.70962e-06     -1.23994
   3.9532 0.0677596  0.850621
 0.51405  2.81094 0.909648
 1.90957  4.29516 0.093583
  3.07446 0.0018602  -1.40484
  2.93008   2.56479 -0.534375
 1.77331 0.302359 -2.67262
 -2.59827 0.0885186  -2.27433
-0.513706   1.27856   2.43808
-0.758193   3.28093  0.919098
 1.36566  2.66138 -1.59221
 -2.79567    2.1498 -0.876671
   2.968 0.885399 -2.28112
 4.17641  1.07167 0.177021
0.212154    2.832  -1.2111
 0.0331054    5.51976 -0.0772834
-4.77349  5.64281 0.945077
-1.76091 0.641236 -2.16231
2.31894 3.34049 1.45286
 -3.88057   6.01125 -0.511445
   3.20353 1.4418e-06   0.166935
-0.193917    4.2933    0.2078
 1.72364  2.24079 -2.02057
 -3.87665   2.60385 -0.282702
  0.0841648 4.79131e-06     1.14168
  4.79774  0.428645 -0.107433
 2.89962  1.88236 -1.17896
  -3.94344    6.74653 -0.0852862
-0.395745    4.4775  -1.42694
 0.32081  4.39348 -1.08125
 2.75597 0.932186    2.172
 -2.7792  1.76626 -1.50972
    2.16337 -4.6613e-06     -2.1102
 2.42135   3.0331 0.523255
    2.47633 1.91371e-06    0.357295
    -3.20244 -5.32547e-07    -0.431177
 3.18805  1.07736 -1.46101
-0.213491   4.58731 -0.380374
 1.98183  2.51651 0.202982
-3.85338  3.04951 0.314953
     2.29075 -2.50853e-06     -1.29099
 0.951669   6.95864 0.0258444
   -4.13894 5.14574e-06     0.96377
   -1.74514 6.20434e-06     1.65916
 -4.35219 1.079e-06 -0.116944
-1.53282 0.300481 -2.07092
-3.78306  1.38257  1.77961
 4.84693 0.996227 -1.36003
0.882761 0.799786  2.36721
 -4.72588   4.86277 -0.616157
-2.12714  1.29248 -2.14103
-0.318386   3.82042 -0.952263
-1.54569  1.61944 -1.57112
-0.883369   1.59448  -2.08033
-0.971515   2.36507  -1.02256
 1.61497  5.41628 0.238906
-2.04393  2.06645 -1.12241
1.74841 4.34223 0.47118
-5.07026  1.71927 0.438126
0.993657  3.84702 0.946624
-0.642447   2.73467 -0.675937
-5.11385  5.91802  -0.4194
  1.42695   5.81518 -0.179989
-0.523031   3.54379   1.48902
 2.48197 0.869575 -2.66139
 3.16777 0.267331 -1.83029
 -3.87613   5.50163 -0.144168
 3.19256 0.371263 -1.40524
-0.370883   2.73235  0.523835
0.222945   2.8428  1.46548
-2.37587  1.66697  1.80406
2.72125 1.50358 1.21475
  -0.784598 3.80927e-06     1.18106
-2.83021  2.00831 -1.10144
   -4.11757 7.92006e-06     1.38871
-0.138713   3.29396 -0.604924
-0.861193   2.98791   1.11593
  -5.09667    2.53852 -0.0646588
 4.81017 0.830341 -1.46691
 -5.10542    5.4108 -0.233419
  2.65731 0.0592389  -2.26082
 4.12945  0.27228 -1.54041
-1.47512  1.96056 -1.02263
-1.07244  1.13582 -2.40409
 0.50511  3.14065 0.906022
 1.36476  1.43309 -2.64915
 -3.87689   5.21139 -0.355523
 4.19306  1.97951 0.909667
-5.04899  4.83536 0.799936
 1.12606  5.98997 0.188232
-5.08307   1.3958 0.194382
 4.80189 0.654004 0.834386
0.292719  2.44291 -2.10394
 3.38135 0.381843  -1.2035
-4.2451  1.6504 0.92834
-4.94675 0.073222 -1.01215
  -0.421434 5.11086e-07   -0.109922
    -2.01586 -3.49426e-06     -1.67339
0.282587  2.42155 -1.67234
   -2.60575 1.42075e-06    0.162112
-3.43391  2.01882 0.773133
 1.43647  4.30687 -1.03757
 2.66334  2.92589 0.787087
    -3.1061 3.87672e-06    -2.22856
     -3.0811 -2.95373e-06     -1.24306
-0.177711   4.13058  0.949028
 -3.90473   4.05473 -0.607741
-0.552216   1.04294  -2.55064
   -3.10361 2.32694e-05     2.42885
-3.90259  5.27172 0.892446
 0.167393   5.66757 -0.361781
 1.61544  5.27172 0.371929
0.310203  3.90489 0.822929
-4.88786  4.14489 -0.60361
  -2.64498 1.8693e-06   0.373593
0.778952  2.69961  -2.0916
 3.88026  2.16994 -1.41589
-0.00641143     5.43519   -0.260901
 -3.87631   3.91485 -0.183208
-0.0806942    3.15371   -1.71025
 0.33059 0.920079 -2.59694
-4.16729  1.07134  1.83809
  1.96836   2.56381 -0.771994
    0.785019 -3.84467e-06     -1.51372
  1.01633   6.15068 0.0691937
-0.707302  0.674294  -2.54253
-3.08188  2.16752 0.780136
-1.52867  1.77286 -1.27987
   -2.11164 5.83964e-06     1.63941
-3.66928  1.36096  -1.7687
-3.74856 0.754223   2.3377
2.70133 2.04404 1.01023
 4.42768  1.06258 -1.23962
-2.68193   1.8522  1.48218
 1.39905 0.174469 -2.65296
 0.614425   6.30085 -0.265539
     3.10336 -1.37199e-06    -0.621917
-0.580016   3.97551  -1.32918
-3.50349   -3e-06 -1.38319
-2.70918  0.50453 -2.40448
 -4.57737   3.55246 -0.627129
 1.55814  1.90463 -2.24528
   -1.28248 2.22493e-05     1.69713
 1.92618  3.66363 -0.10228
  4.1041  1.91949 -1.07286
    -4.995 0.00811855   0.870579
4.21888  0.8836  0.9375
  -5.07775  0.0244613 -0.0609979
 2.75382 0.506356  2.00309
 3.94605  1.51381 0.811847
-0.225878   3.98789   0.91582
  0.00374406 -3.39513e-06     -1.47435
-3.35755 0.301352  2.47101
 3.42423  1.13113 0.689105
-1.13997  2.04656 -1.02495
 2.57498  1.94871 -1.40233
0.0240842   3.46161  -1.49519
0.00143223    3.34685   0.636262
-0.0192256    5.08112   -0.63764
  -2.38872 2.5181e-06   0.694925
   0.200438 1.79694e-06    0.269039
-5.07025  5.42468 0.439611
0.22074 1.81873 -2.5912
-4.20453 0.317231 -2.01062
    2.49338 1.04734e-06  -0.0431791
 4.49013 0.357881   -1.492
-0.272368   3.30998  -1.75926
1.03112 4.23812 -1.1973
     2.25854 -4.78252e-07     -0.67942
0.0575308   1.69453    1.9412
  0.940744 2.5198e-06   0.461084
-0.213665   3.32788  0.601532
 3.16634  1.39604 -1.40283
  4.42184   1.02348 -0.615836
 2.56236  2.00914 -1.86012
-0.156129 0.0749837    2.4165
 -4.96495   5.28297 -0.594295
 -4.44969   2.21294 -0.637203
 2.79995 0.789055  1.82889
-3.82922  4.97245 0.579954
 -5.09733   3.99486 -0.535463
0.476927  2.53769 -1.27802
-2.82154  1.52385  2.00138
1.91107 3.90874 1.16949
   -1.74718 3.02102e-06    0.698851
-0.590662   3.67015  -1.59022
   -1.68026 2.35911e-06    0.490101
 3.16843  0.11913 -1.81543
 2.63528 0.806739 -2.27012
-4.25895 0.908986  1.96519
0.295588  5.20084 0.662593
     1.00027 -4.46473e-06     -2.20377
 2.45671  3.38904 0.665675
2.67705 2.51203 1.03178
 2.01712  4.11289 -1.19021
2.53467 2.56604  1.7549
-2.31092 0.386209  2.28484
0.251601 0.490378 -2.59281
 -4.72044   7.33793 -0.101572
 3.32554  2.25748 0.579585
-3.84814  5.05533 0.381588
-2.19587  1.83751 -1.47373
-0.277484   3.84233  0.827541
  4.18938   1.93735 -0.331658
 3.22718  2.47211 -0.71415
    -2.03846 -2.17077e-07    -0.382621
   -1.80127 2.48373e-06    0.499023
  1.6027   3.5232 -1.67141
-0.824909    1.3267   2.30688
-1.53526  1.69943  -1.4036
-0.842586   0.53494   2.11697
    2.85967 2.77569e-05    -1.90006
    1.50091 5.04545e-06     1.32433
-1.94698 0.483379  2.19292
   0.665602 7.50677e-06     1.63112
   2.25551 9.9042e-06    1.96029
-0.0952614    1.80128   -2.37005
 3.44624  1.32424 -1.20623
1.49396 2.38022 2.14615
 0.964449   5.62482 -0.856214
 -2.10949 0.0931732   2.20031
-0.196016   4.48421  0.204233
   2.1929   3.36517 -0.920595
-2.82677  2.07085  1.09507
     4.47846 -2.52866e-06     -1.07111
     2.18904 -9.79757e-07    -0.807414
  1.70793   5.18004 -0.527474
    2.08629 7.77453e-07   -0.161238
-3.82551  2.13407 0.603755
    4.20967 0.000687253     0.84786
-0.0996466    4.27135    1.02468
   3.8392   2.92285 -0.269064
-0.421308   2.93333   1.72059
 2.70196   1.4459 -1.45033
-1.75325  1.75592  -1.6247
 -4.27435    1.5866 -0.677585
 -4.84054   2.68407 -0.607298
-0.851993    3.5191  -1.25515
-0.703218   2.51032 -0.723439
-0.141774    3.9071 -0.586636
 1.21565  2.44319 -1.44447
0.236773  3.05539  1.41091
-1.76842   1.6373 -1.80831
0.382806  1.83882  2.39335
 2.08188  1.87868 -2.22336
-0.890039   1.45972   1.92558
0.295146  4.81445 0.781472
-2.95752   -3e-06  -1.4084
 2.10385  4.36186 -1.48385
-3.88829  6.67618  0.17043
     2.1526 7.15033e-06     1.77439
 3.27222 0.543404 -1.22163
-4.38794  6.17985 0.851101
   -3.75619 6.58093e-06     1.00372
  -4.92181     6.9975 -0.0652407
  1.93133   4.03791 -0.159577
    1.50505 2.83764e-06    0.617772
-2.92364  1.61162  1.83847
    -1.61437 -1.60278e-06    -0.923047
1.44628 1.87033 2.33722
0.598639  5.33071 -1.00031
 2.72394  1.44941 -1.27846
  3.83387 0.0523699  -1.41356
0.512946  4.52181 0.908526
    1.79138 5.91714e-06     1.72028
-3.62042 0.275163  2.33472
1.96229 2.69643 0.39831
    1.68101 -3.9487e-06    -1.87706
   -1.58524 3.83992e-06     1.00655
2.34358 2.80973 1.57031
   -2.04509 5.98693e-07   -0.133985
 3.95258  2.33157 0.578753
0.891811   2.7023  1.25768
-4.19913  5.91397 0.925932
-4.30364 0.590834  1.80136
-4.93744  6.16957  0.88817
  -0.483383 6.37232e-06     1.72598
  4.0987 0.953694 -1.53598
 4.08688 0.513786 -1.53806
-0.414536   1.45566  -2.14145
   -3.92468 1.92801e-06     0.49763
-2.3622 1.10615 2.22396
-0.993679   2.35555  -1.33624
   0.859634 -2.7657e-06    -2.32234
-4.85842  4.86145 0.944487
-0.310281  0.477209  -2.56335
-3.86921  1.98866 -0.14117
 1.09265  3.25943 0.930279
-0.230351   2.83059 -0.297479
  4.20578   1.03474 -0.717264
  -3.91228    6.44266 -0.0184866
 4.79675  1.02909 -1.47346
  4.8282 0.572825 -1.44207
-4.65991  5.33804 0.941929
 2.75719 0.993618  2.08617
 -0.232691 0.00130795   -2.49954
-4.21587  2.50738  0.92514
1.36563 2.46129 1.93942
  1.94293   2.52091 -0.571997
   2.67128 1.8781e-06   0.319035
  0.0454495 7.69464e-07  -0.0892261
-0.329016    4.3919   1.29369
-3.84886  5.84458 0.381452
    0.240382 -3.66814e-06     -1.54231
   -1.89972 4.87354e-06     1.48378
 4.30379  1.02444 -1.02417
    2.11396 4.75311e-06     1.41711
  -4.0237    3.1636 -0.648637
-0.188715   2.68707 -0.472263
   5.005  1.08843 0.708801
-3.75032  1.06847  2.21381
 -1.05873 0.0343073  -2.20944
0.154101  3.47078  1.35041
0.709898  2.00841  2.37629
-1.55841     2.04 -1.13631
  -3.245  1.12753 -2.32045
  3.9453  1.96764 0.728432
  1.63211   3.50651 -0.882182
  1.87536   2.66352 -0.491145
 -3.87658   4.56437 -0.336512
    3.02107 4.90908e-06     1.35218
-0.510964   2.86752  -1.84417
0.858103  3.31074 0.958882
-5.02708 0.805795 -0.83523
-0.732901    3.6432  -1.03326
-5.02026  2.63716  0.90411
 -4.73402   3.55582 -0.615528
    2.61226 0.000471137    -2.01781
-0.226765   3.02192 -0.331165
-0.654201   3.16511  0.727134
    2.01492 4.80269e-07   -0.307031
-0.0311875    1.20603    2.41511
    -1.40265 -2.33313e-09    -0.427976
-4.04374 0.963973 -2.06405
0.592149   2.4323  2.35752
 2.51148 0.556006 -2.56752
  -0.839698 7.03629e-06     1.64616
-3.84516  1.97801 0.230338
 3.94327 0.826574 0.799044
 -3.88119   5.57951 -0.492174
-1.12121 0.961552  2.02045
   0.57453    6.09796 0.00703037
 1.83741  4.91464 0.128167
 0.176373   5.51469 -0.600258
-0.212268   2.02508  -2.09097
-0.688428   2.70395   1.54583
-3.83023  4.70768  0.56826
-0.234851    4.5386  -1.21432
 1.28076 0.156894    2.346
0.432112  2.65678 0.882574
 1.85233  3.12663 0.472919
    0.79663 1.81892e-06    0.303887
   -3.31887 4.28845e-06    0.670521
3.32824  1.3272 1.28968
-1.25014 0.662916 -2.06136
-1.48945  1.93384  1.34094
 1.47412  5.66142 -0.43726
 4.28746  2.10404 0.543371
 1.28289  5.47993 0.568963
 1.96046  4.10523 0.843667
-3.83231  4.03223  0.53855
0.0558345   1.45321  -2.58184
 1.32201  5.02933 0.754722
    2.12261 3.64855e-06    0.958561
-3.85636   4.6186 0.308269
  -5.069 0.379404 0.463049
   4.06222 1.1073e-06  -0.221318
  4.22578    1.0398 -0.513516
-1.12645  1.67255 0.977443
-1.25404  2.29019 0.765439
 4.79023 0.998789 0.487813
   0.676993 4.69688e-07  -0.0416326
1.71692 2.15225 2.30405
 4.24947  2.01115 -1.23384
-4.68199  1.06452  1.33461
-5.07498  1.48261 0.348486
     2.51439 -1.45122e-06     -0.94625
-3.05122  1.90776   1.2923
0.190709  3.45758  1.28095
 4.23101  1.34394 -1.12321
0.938535  2.62814 -1.43002
     2.80207 -2.21109e-06     -1.16098
-0.900906   2.27939  0.771941
-0.275664   4.01722  -1.40606
-2.6045 1.62586 1.85575
-5.04604 0.270358  0.83965
0.0259926   2.03123  -2.57885
-0.542336   2.34761  -1.86449
-0.970866   2.87337  -1.02205
     -4.331 2.06091e-06    0.533978
-4.56691  2.68021 0.939291
 4.69309  1.19793 0.628475
    -1.83634 -2.39003e-06     -1.12402
 2.51151  2.41897 -1.97677
    3.52641 1.04988e-06   0.0893508
 -4.59561   3.05766 -0.626143
 -1.5602  2.43939 0.517825
0.671452    2.532 -2.61125
 1.10494  4.31298 0.925156
-4.93213 0.052973  1.14374
 2.77723 0.154441 -2.27025
 0.442306   5.94386 -0.395999
-4.34049  4.90737 0.931459
-4.45262  4.74902  0.93591
  1.7733  5.09184 0.183187
-2.48893 0.977196  2.51459
-3.88705  6.23876 0.208555
   4.1134     2.366 -0.667974
 3.94315 0.907414 0.810712
 3.31032  1.96936 -1.20138
  1.84881   3.47667 -0.535723
-0.839806 0.0910807   2.12466
   -3.87971 9.05025e-06      1.3125
 3.84962 0.799332  0.66335
 4.2382 1.63305 -1.1067
-0.0660492    3.43463   0.474871
0.851916  2.65865 -2.17541
2.76083 1.52947 1.67416
-4.42702  6.65588 0.747978
0.51835 1.03727 2.38632
-2.34033 0.968109  2.29424
1.85074 2.92441 0.36018
-3.89916  6.51375 0.281224
 3.26289  2.05505 0.701627
-1.25164 0.689843   2.0317
-4.91455  3.04249 0.945054
    2.38011     2.61679 -0.00226445
 -3.87636   4.71476 -0.269819
 2.78055  1.71725 -1.17192
   -1.50029 3.43887e-06    0.898714
    1.19154 1.17885e-06   0.0773039
-2.64139  1.14935  -2.1181
-3.82568  2.42455 0.602287
 -5.11271   2.09451 -0.385597
  4.15779   1.84415 -0.607758
 2.95692   2.4801 0.209149
 -3.1056  1.34724 -2.05605
-0.534188   4.25353  -1.12194
    1.53436 5.48554e-06     1.48196
-0.065774   2.44389  -1.76543
-0.0578516   0.437642    2.41658
-5.08261  3.74572 0.202552
 1.31536  3.15075 0.850447
 4.11462  2.59058 -1.18338
    0.25396 2.09933e-06    0.381567
 1.63643  3.56763 0.938978
-0.0953397    2.09354   -2.47132
  -0.124253 6.16472e-06     1.53141
 2.92243  1.72753 0.706528
 -4.44808   1.38369 -0.857199
  0.0159929 5.73826e-06     1.39306
1.97895 2.75972  -1.975
  0.571867 0.00626703     2.3304
  -2.77096    2.54281 -0.0582892
 -4.80237   2.11178 -0.610349
  4.07632   2.31131 -0.806142
 1.6961 2.24498 1.68417
-0.803353   2.13419   1.94333
-2.8886 1.34328 2.20672
-1.9494 1.44858 2.12722
  2.9835 0.356093 -2.28166
    1.26094 3.21458e-06    0.686794
-4.57358  5.03564 0.939486
0.690255  4.48061 0.947942
-3.93766  1.56264 -1.23091
 -3.87247   5.19521 0.0778571
0.664417  2.92098 -1.19825
    3.77222 1.44786e-06   -0.887192
-0.716731   1.21751  -2.54103
 1.07784 0.351892  2.35699
   -0.98474 3.04334e-06    0.859597
 -2.7037 0.376592  2.67227
-4.28316   7.6456 0.244728
     1.23117 -4.89632e-06     -2.08494
-1.59098 0.451657  2.17352
 3.16658  1.15914 -1.85356
  3.82455   2.39639 -0.913305
 -5.10189  0.855049 -0.163875
  -3.53878 9.4703e-06    1.30024
-1.81818  1.47565 -2.05716
 -4.50791   1.40057 -0.705866
-4.02728   -2e-06 -1.51424
 1.45355  3.20377 -1.10297
 2.54307  2.21143 -2.04021
    -2.74131 -3.66506e-07    -0.408668
    -3.28488 -2.73649e-06     -1.68864
   -4.23727 2.29979e-06     -1.6516
-3.82308  5.71209 0.828975
  -5.09284    0.84494 0.00851815
  1.37201   5.12535 -0.946153
-4.11611  6.91357 0.536575
 4.13457   2.7602 0.066067
-1.52858   1.2004 -2.06829
 2.39434  1.09419 -2.70336
   0.760476 5.66822e-06     1.28446
 3.39097  1.44138 -1.20381
0.689679  3.36665 0.948747
  -2.77292 0.00323149   -2.30588
1.80907 3.72772  0.7524
 3.33667 0.359338  1.39057
 0.173965   3.84311 -0.982837
   -3.16378 1.24824e-06    0.124577
    2.63098 4.62214e-06     1.30621
  -0.0592347 -3.80082e-07    -0.397178
    3.20873 0.000429582    0.570927
-4.97813  5.25867 0.934453
-2.30931  1.42932  2.16388
0.287406  3.34146 0.812666
 1.7146 2.87493 1.47529
 -2.83948 5.128e-08  -0.28814
     3.6428     2.58339 -0.00895507
   0.712296 6.40978e-06     1.41006
 -5.01859 0.0044853 -0.312478
    2.14923 0.000298482    -2.49076
0.210066  2.79144 -1.25009
0.855853  2.66977  2.03177
-4.96562  6.97681 0.258716
-0.871733   2.51973  0.967913
-4.27201 0.161203  1.94064
  -3.87585    5.66945 -0.0267607
-0.26857  4.57471  1.26216
   2.8059 1.107e-05   1.49778
0.561874  4.78514 -1.15495
-3.87212  6.02922 0.116832
 -4.34556   4.46935 -0.640515
   -3.74827 -1.6847e-06   -0.791545
    0.659711 -1.90229e-06    -0.904403
-2.93693   1.8115  1.49773
-2.62557  1.23411  2.22725
-0.168486  0.666183   2.42236
  4.77218  0.851807 -0.529375
  1.29601   5.81638 -0.498716
-0.316843   2.60715 -0.651897
   -1.33319 5.70506e-07   -0.234584
-5.06188 0.964633 0.598022
 3.83212 0.734249 -1.42418
2.68017 2.28643 1.02399
 2.54197  2.58439 -1.50486
-3.40034  1.75551  1.37524
-2.79932  2.46286 0.357339
    0.520064 -7.74113e-07    -0.561951
   -4.079 0.0320543   2.19655
-0.0594129    3.47815  -0.900559
-2.1572 1.78049 1.61877
-3.13642  0.59307 -2.55331
   -4.5246 0.00314919    1.48014
-4.61122  7.86184 0.308491
 2.01548  2.77063 0.396849
-2.8786 1.57576 1.91192
   -0.99944 2.27949e-06    0.598557
-4.86649 0.424301  1.30111
-1.39643  1.54799  1.07563
  -5.1048   2.48878 -0.220153
  1.3649  2.88355 -1.59722
0.337112  2.81252  1.28722
-5.05124   1.5458 0.768366
-5.06026  4.13121 0.625146
-1.82085  1.10486 -2.16129
 2.75521 0.278395  2.09058
 -4.64806   4.18577 -0.622136
   -1.26118 8.11082e-07   -0.137176
-2.76501  1.62574  1.84032
 1.13313  4.18792 -1.17575
 1.84135  3.54011 -0.55007
-0.833087   3.45242  -1.44577
 2.03086  3.81937 -1.07802
  1.2584  3.57473 0.875745
   4.7559  0.742079 -0.905106
-0.871355   1.74882   1.82117
-4.95376 0.936783  1.03055
 4.18021 0.014957  -1.5073
 3.16681 0.479562  -1.8476
    1.42621 1.76277e-05     1.95069
-0.855595   2.10097  -2.08016
     1.05598      6.72546 -1.25014e-06
0.154855  2.58102  1.54673
4.27422  1.3873  0.8988
-0.379072   0.30973   2.43339
 3.12683  1.40968 -1.98979
   -1.17651      2.7045 -0.00941941
-0.713704   2.81338  0.719289
-1.36344 0.196713  2.10047
 0.159242   4.84587 -0.934139
   -0.454287 -3.18485e-06     -1.93316
 -4.48884   7.24111 -0.238717
-0.630159   3.33322   1.48468
    -1.85743 -3.84058e-07    -0.473745
  -0.907051 -2.7165e-06    -1.90436
-4.79508  3.00305 -0.61075
 1.31262  4.10956 -1.11103
   -4.63226 6.47542e-06    0.337699
-0.430609   3.31021  0.618534
 1.05248  6.02239 -0.45013
2.01601 4.31967 0.81386
   0.604595 1.49109e-07   -0.181479
 4.81364 0.547615 -1.25537
-0.750947   3.34569 -0.882625
-0.541709  0.798191   2.44184
 2.25151  2.64641 -2.12542
-1.41701  2.47894 0.440548
     1.31263 -3.30455e-06     -1.52873
1.59626 2.29674 1.62622
-0.987177   1.44695   1.38462
-0.165685   2.60425   0.29619
2.52086 1.15552 -2.4427
-0.965451   1.94825  0.981707
0.604056  0.91324  2.38182
-2.90314  1.43789 -2.01094
    2.23501 1.17461e-06   0.0303257
-5.04571  5.39236 0.839748
 -5.0823  4.94363 0.209479
 4.50132 0.158631 0.857074
-0.0717716    3.15185    1.63718
   1.8899   4.34647 -0.421121
0.959313  2.57188 -2.52956
-1.59573  2.63946 0.160724
1.56715 3.22237 1.18207
   -3.48131 5.65995e-06    0.838644
-0.929171   2.54553  -1.97354
 2.37076  2.56641 -2.16338
 -1.53054   2.46012 -0.485251
 1.96364 0.392638 -2.68263
-1.36535  1.44525 -1.38133
-5.08051  3.68183  0.24263
  -5.09321    4.45776 0.00124816
    0.364868 -1.73157e-06    -0.809925
   -2.29058 3.59316e-06     1.12215
 1.83079  4.04015 -1.52214
-1.9023 1.91948 1.39406
   -1.96574 1.48429e-06    0.157045
 1.14364  4.63804 -1.16154
-0.78215  2.70589  -1.9215
-0.964406  0.274352    2.0139
  1.64768    5.4993 -0.169546
-0.578024   2.62432  0.578641
-0.493501   1.50352   1.99828
-4.13635  1.12649  1.46333
 -4.28533   7.01643 -0.295419
-3.87626  3.03778 -0.21956
 2.20732  4.44492 0.870099
0.920811  1.54126   2.3652
 2.90849  1.23841 -2.27801
    0.830354 -9.85538e-07    -0.670269
1.35865 2.31722 -2.3011
2.12962 1.46263 1.87511
  4.6583  1.33558 -1.46186
 -4.67732    5.7327 -0.619859
2.09091 1.44282 2.17417
  3.28077 0.0115219  0.779317
 -3.8125 0.439499 -2.10576
1.01194 2.68451 1.80031
-5.05772  4.70792 0.664562
 1.01322 0.536796  2.36037
-2.97031  1.97815  1.20341
-3.81099  3.80501  0.79731
