-4.55768 0.593695 -1.28306
-1.85557  0.98604  2.18809
0.481394  1.61883  2.38813
   1.7912   3.28336 -0.661326
 2.66472  2.29541 0.769507
 -5.07013  0.315668 -0.597971
 2.31357 0.251631 -2.70085
-4.97993  1.50508 -0.59425
 3.30893 0.397936 0.902401
-3.32595  2.10189 0.693806
2.46403 1.46536 1.87433
     3.26996 -1.87809e-06    -0.731335
  3.8988  1.60904 -1.50186
-3.86113  4.70237 0.249102
  2.23156   3.03525 -0.834073
-1.28803  1.15906 -2.05909
   -1.07584 -2.1942e-06    -1.10005
-1.33428 0.572157   2.0671
-3.31739  1.67503  1.58253
0.812692  6.63394 0.134992
 2.29041  2.44669 0.333665
-0.842339   1.49523   1.96583
 1.21093  5.88803 0.244841
-0.832712    2.8123   1.38977
 -4.4699  5.46416 0.936393
  4.19868    1.4957 -0.154196
-0.706128  0.752854  -2.54258
 2.74708 0.683988 -2.27067
-1.69861  2.25104 0.855608
     4.20938 -2.71488e-07    -0.693365
 -4.27806     4.194 -0.643499
   -2.18348 5.52925e-06     1.54772
 -0.9409  1.25955 -2.52831
   -2.92706 6.75949e-05     2.27705
-2.78219  1.17737  2.40511
-5.11217  2.07033 -0.40197
     3.05532 -1.89215e-06    -0.962964
2.17466 2.21024 1.76617
 -4.86473   3.60213 -0.604969
    1.84299 6.07644e-06     1.76197
-1.74603 0.975357 -2.16152
-0.509222   3.13984   1.62036
-1.11288   2.2563 0.829323
   0.597126 1.83911e-07   -0.168517
 1.41065  3.43155 -1.05542
    1.85879 0.000408901    -2.58045
 -1.102 1.44508 1.25197
-0.133745   4.09652 -0.609493
0.815412  2.42953  2.37031
 -4.69375   2.88825 -0.618621
  4.06615   3.13867 -0.322278
1.05888 1.70561 2.35798
-4.12459  1.83605 -0.65064
 3.83086  0.58655 -1.40895
-2.8754 2.08456 1.05506
  1.24445     5.703 -0.673566
-3.81289  4.19653 0.802679
 1.18586  3.54692 -1.15938
-2.44496  1.28133  2.20879
 1.65496  2.79207 -1.92153
0.690174   2.5791  1.53044
 0.30532  1.60835 -2.59558
  -0.821286 1.71988e-06    0.415144
1.26647 2.51511 1.58694
-2.09387  2.06635 -1.11981
-3.81833  1.32733  1.79762
1.24721 1.41835 2.34811
-3.84104  2.31252  0.45557
1.03444 2.37962 2.35922
-4.41101  4.50083 0.934206
  1.4774 0.621516 -2.65711
  1.07867   6.52377 -0.217753
  -0.554929 3.85837e-06     1.21693
  2.6102 0.193594  2.27358
-2.30096  2.16297   1.0149
  1.81812   3.30291 -0.861287
2.59044 3.31588 1.08358
-2.94885  2.39112 0.382305
-2.45525  2.26668 0.824871
  4.0213   2.4113 -1.49391
-3.82469  4.60996  0.62171
-3.85581 0.181626 -2.10687
 2.37123  2.77599 -0.94168
 3.64479  2.34978 0.403006
 3.04372  1.46597 -1.27114
-1.62823  1.65787  1.78994
  1.73992   5.30815 -0.212307
  4.19393   1.85928 -0.235448
2.70991 1.54396 1.04966
0.301625  4.25732 0.816108
   -3.86174 0.000608297     2.18468
  -1.885  1.88268 -1.41919
-0.33303  3.30575 0.596852
    3.36998 1.75605e-06    0.266106
-0.724721   3.06102   1.46824
 1.70549  1.48844 -2.20704
  1.4893  3.48807 -1.46983
 4.38876  1.03426 0.865036
-4.52653  5.45064 0.938031
 4.17265  1.11897 -1.08321
   -1.95244 4.32117e-06     1.22815
0.259745  3.28676  1.06794
 3.86488   2.4141 -1.25184
 -4.71695   3.31405 -0.616794
-0.183869   3.04932 -0.485408
0.798932 0.939432   2.3716
 0.957663    7.0766 -0.181503
0.0358891   1.44062    2.3239
    2.09218 3.88007e-07   -0.355431
   -3.36522 3.62645e-06    -2.07857
  -0.489554 1.00618e-05     1.98581
0.166778  3.58962  1.12891
 3.01064 0.685026 -2.28184
 1.52817  1.55441 -2.53226
    -3.34825 -1.59221e-06     -0.71533
  1.2921  3.18259 0.861045
-1.95884 0.332426  2.19351
 2.89207   -3e-06 -1.51074
-4.60367   3.3081 0.940286
 3.45769  0.71279 -1.20698
-2.75581 0.192807 -2.44437
-0.496232   4.02484   -1.4143
-0.763005   3.68697   -1.3413
 3.66201 0.606889 -1.21886
 4.60668  1.32664 -1.29922
-3.08784 0.841712 -2.55241
 0.90613  2.01785 -2.62714
  1.04139   6.67719 -0.274505
-0.19628  3.61997 0.703741
 1.18902  2.76621 0.905549
-0.154873    4.2546  0.304324
    1.85191 5.69175e-09   -0.546193
   1.85528 4.7948e-06    1.35631
     1.05718 -2.81635e-06     -1.31789
   -0.570173 -5.51772e-07    -0.475286
 1.96174  3.92693 0.796727
-0.704205   2.36831  0.669158
-4.06079  6.37457 0.579631
-0.291001   3.52548 -0.798927
  -4.51053    7.62289 -0.0791091
  1.53886   5.63802 -0.314817
    -3.01915 -1.85282e-06    -0.804949
1.05387 2.67132  2.1123
 -5.08813   3.80846 0.0975593
-2.59505  1.90402  1.40745
 -4.5082  6.43001 0.752519
 -3.95036   6.41939 -0.124054
-2.59896  1.08341 -2.13498
   1.45807 4.6619e-06    1.18468
0.0814679   5.46173  0.233071
   -1.72109 2.91781e-05     1.97623
 -5.10434   3.98685 -0.214337
-0.94172  1.99848 -2.07516
-3.96229  5.33571 -0.64118
1.67828 2.84443 1.44262
 -4.96002   6.40967 -0.201471
    -1.55325 -1.96605e-07     -0.46702
-0.267016   3.97681   1.32461
  4.78956  0.421985 -0.263499
 4.11116  1.88777 -1.50242
  3.3449  2.49714 0.158686
   0.0827288 -1.02424e-06     -2.29017
-4.71093  5.10954 0.943367
-0.450552    4.7833  -1.22112
-4.67856  7.44521  0.37878
-4.32173 0.394782  1.63555
-0.870715   3.38992  -1.40089
-3.79183  1.94392 0.427413
2.65873 2.44305 1.70814
 -3.98736   1.64818 -0.923501
    4.03861 0.000173614    -1.40106
      2.7973 -1.76841e-06     -1.00172
    -4.34075 -1.41105e-06     -0.82188
-3.09249 0.257581 -2.55359
 4.81323 0.303323 0.187542
0.10556 1.56879 1.96671
-0.301659   2.87987   1.72009
-2.1764 1.17226 2.20467
-4.66783  7.40792 0.411286
    -2.4279 5.67103e-07    -1.83712
    2.48447 0.000383592     2.11815
-0.0902093     4.8586  -0.623439
-0.886559  0.198732  -2.53151
   -3.78611 -1.3664e-06   -0.685945
-3.23309  1.18146  2.12058
-0.105762   2.01678   -2.1409
 -4.46211   5.32692 -0.635601
-0.724739   2.60474 -0.742747
  3.84369 0.0827879   0.65601
  1.84196   3.64949 -0.547325
  3.2761  1.16961 -1.22255
-0.508182   2.71709   -1.8444
 3.44069  1.96922 0.680545
  1.47685   5.30777 -0.779702
-3.47409   -3e-06 -1.49587
  -2.32373    2.67255 -0.0466273
 -3.8732    2.207 0.117856
    -2.77468 -3.55317e-07     -0.40389
    0.849573 -4.34341e-06     -1.77083
  1.2139  5.02961 0.815445
-0.38678  4.05587 -1.05591
 2.81639  1.44498 -1.45757
 -0.395537 0.00095872   -2.43997
0.907187  6.15236  0.13386
0.790922  4.24742 -1.21704
1.06562 2.02379 2.35762
 1.58487  4.99587 0.561857
 1.79754  4.37943 -1.26375
 4.76548  1.22944 0.625421
  3.48574    2.6699 -0.369969
-4.44963  3.86178  0.93591
  1.67939   4.69431 -0.786809
  2.63491 0.0259692  -2.25111
 -3.87616    2.9546 -0.143579
   4.6443   1.02056 -0.446915
  -0.116603 1.01183e-05     1.94529
-5.07466   1.6984 0.354557
    0.941663 -2.06318e-07    -0.291759
-0.840094   1.09233   2.12946
 1.59162  2.30021 -1.88483
 -3.21358   2.18509 -0.514178
  2.37454   2.66426 -0.326997
-1.41145  1.77427 -1.01719
-4.72085  2.73197 0.943515
  2.2507  3.01957 -1.88376
  -4.2116   2.25128 -0.647255
    1.70773 2.10314e-05    -2.45825
 -5.10031   3.98365 -0.529289
    2.42377 8.11642e-06    -2.07073
 3.72953 0.948786 -1.22432
-3.8326 4.98457 0.54338
   1.08896 0.00914721   -2.60113
 -3.5293 0.912436 -2.36642
   -0.515939 -1.80648e-06     -2.17225
-0.376754   4.35006   -1.0579
     -3.3523 -4.98683e-07    -0.415459
   4.66038 0.00219699  -0.390577
1.56591 2.32759 2.25358
   4.638 0.529886 -1.49935
   -3.13137 5.26543e-06    -2.16865
-2.51321  1.56817  1.95358
-0.62742  3.71094 -1.53028
   -3.17683 8.62156e-06     2.06104
-0.468452  0.304067   2.43803
-4.85325  1.64186 0.945651
0.544385  4.90297 0.871409
 1.54944  5.59111 0.130091
 1.31967  4.15789 0.848497
-0.450993   2.94609 -0.648887
  1.53401   4.50722 -0.964959
 -4.96181   6.76035 -0.179642
 0.932933   6.84895 0.0816972
-4.25548 0.600581 -1.97286
 2.56271  1.97319 -1.65368
   3.80858 2.8195e-07  -0.304641
-0.45035  1.44507 -2.27959
 -4.06124   6.84623 -0.217978
-1.07143  1.68166 0.975103
   1.07011      6.486 -0.0174202
-1.45077  2.58262 0.258047
0.0936744  0.144014  -2.58241
-0.613745    3.3739  0.746773
4.23448 1.57442 -1.4686
 -2.50085   2.41916 -0.470089
 -0.321544 5.0099e-06    1.35715
   -3.06389 -8.3778e-07   -0.522771
 4.25507  1.41991 -1.26282
    -3.5448 2.91557e-06    0.540651
    0.273201 -4.13654e-06     -1.80526
 4.06006  2.64094 0.723862
  4.76951  0.377134 -0.645437
2.33537 3.54884 1.36011
0.44526 2.72489 -1.1392
-1.26571  1.11226  2.03021
 2.65445  2.16665 -1.16099
0.15491 1.64713 2.31473
 1.68748  4.66892 0.534028
 -4.40512   3.11999 -0.640283
   -0.227637 -1.24155e-06    -0.676063
-4.14468  6.40318 -0.34563
 3.18118 0.234737 -1.57569
-0.179012   3.94037  -1.18954
-1.04514  1.49521  -1.5013
-1.11534  2.52148 0.349673
2.21029 1.63645 1.82145
  1.37462   5.07399 -0.965795
-0.892807   1.48306   1.58651
 -5.11325   4.25917 -0.471236
-0.424824   3.94229  0.964968
0.871461  2.66744  -1.4868
-5.04935  4.41488 0.786879
  4.07804   2.02691 -0.809278
2.02852 4.74395 -1.3528
    2.34264 0.000129977    -2.46855
-2.10306  2.14733  1.03959
-0.260267   1.44511    2.1317
  1.574  2.3118 1.63511
-1.09614  1.45694 -1.10657
-0.0198195    3.84954   0.979249
-3.03925   -3e-06 -1.38507
 0.92106  4.75002 0.940723
   3.98016 0.00015553   0.495014
  -4.91015 0.00268067  -0.130002
  3.1967 0.234164 -1.33688
-0.0469749    3.52158   -1.55571
2.06089 1.44306 -2.5053
-4.47571 0.869909 -1.50873
  2.4213   2.5695 0.498533
-2.36431   1.9888 -1.22002
 0.969595   6.21792 -0.352575
 3.0602 2.21554 -1.1417
-2.9802 1.62838 1.79222
-4.29634 0.262514   1.8459
0.871443 0.372323   2.3678
-3.85013   2.6479 0.368012
1.33738 2.22947 2.34301
  1.9528  1.79658 -2.20401
-3.86865  2.47846 0.178254
   1.884  3.92816 0.184445
 -5.04282 0.0734838  0.832404
-4.52666 0.985772  -1.2545
     2.65525 -8.19559e-07    -0.689519
 2.32667  3.68119 -1.47199
-2.88981 0.120987  2.70229
     4.3492 8.06905e-06    0.645766
 1.11404  3.93714 -1.18037
    0.280995 -3.30279e-06     -1.29668
 -0.246464    3.72118 -0.0892558
   -0.928593 -2.57577e-07    -0.432476
-4.43074 0.694365 -1.74133
   0.642029 1.94501e-05     2.03327
 0.31827 0.236767  2.39683
-0.0538026    3.96384   -0.74147
 1.08686  4.36508 -1.18922
-0.677301   3.11747 -0.765093
 2.08251  4.36078 0.806146
-2.44714 0.549776   2.5059
    -2.08353 -1.58299e-06    -0.836966
-3.86071  2.91617 0.234497
-5.08622  2.41033 0.135192
  2.89946   2.53141 -0.591834
-5.06145  5.52065 0.606061
-3.36744 0.764641 -2.49097
-3.55407  1.65255  1.46925
 -2.8041 0.752308  2.69617
   -3.67314 1.43565e-05     1.93515
-0.0213846    3.13575   -1.66573
 1.70559    4.151 0.536078
 4.10888  1.22694 0.912742
  1.88196   2.53145 -0.566449
   -4.81 0.501258    1.377
 2.46073   3.2308 -1.19034
  2.0391  3.38652 0.491083
0.894137  2.69439  1.73109
1.91777 0.46392 2.31292
  1.99344   3.19164 -0.825722
 -5.10619     1.538 -0.245772
 1.05337  1.49887 -2.63485
  -0.24382    2.93358 -0.0477613
-4.29814  1.09911 -1.42165
   0.787005 1.32402e-06    0.188184
 -3.50321   2.07839 -0.365264
-2.55396  2.65331 0.109531
-3.95776  6.91236 0.209089
 4.57463 0.159274 0.850476
   -2.10185 3.46802e-06    0.949775
-2.90709   -3e-06 -1.57502
1.91662 4.53738 1.01903
0.0480903   3.62697  0.848001
    -2.6635 1.21003e-06   0.0582015
-4.14741  5.11558 0.922002
  1.63612   3.98427 -0.869248
 -4.37098   2.26733 -0.639846
0.912274  1.40539  2.36564
  4.63301 0.0033636  -1.42893
 1.99617   1.4549 -2.28498
 1.89348  2.86421 0.155248
    3.01114 4.73803e-06     1.31871
1.79999 2.04043 1.85977
   1.16906 1.8158e-06   0.293018
    1.10345 4.77381e-06     1.32041
0.755893  5.29404 -1.04275
-0.455312   1.90729   1.97998
-2.19651 0.343154 -2.14175
  0.5878  4.38795 0.932121
-0.876246   1.96674   1.39811
-1.61138 0.463891 -2.14027
   4.1966   2.07591 -0.155613
 -1.41072   2.50348 -0.415027
-4.22225  3.31282 0.926074
   0.530248 5.22825e-06      1.1444
    -1.17638 -2.01028e-06      -1.4215
 1.84339  3.75235 -1.04337
-4.73659  4.64382 0.943772
   -3.20668 5.95776e-06    0.978249
  1.26642   5.88401 -0.438857
 -3.87586   2.47545 -0.103194
-3.84787  3.55943 0.378015
      4.2642 -1.66614e-06     -1.14667
    1.73657 0.000846323     2.14326
-0.549563   1.89135  -2.07671
-3.98118  2.86716 0.903936
 3.96902  2.39273 0.626907
-0.115717  0.149546   2.41941
 2.55607  2.05335 -2.10492
-0.809124   2.49113   1.42902
 4.22808  2.46006 0.874832
-0.382276   4.61437   1.16877
-2.68008 0.334165  2.66356
 3.02069  1.35306 -2.27688
-3.22348  1.40935  2.04534
 3.53216  2.25886 -1.10404
 -3.48402    1.9412 -0.816549
3.99312 2.64133 -1.3847
   -4.63036 6.20107e-06    0.287207
      1.4365 -2.21836e-06     -1.27471
   -4.778   7.23386 -0.101314
 2.30528  3.55717 -1.09997
 1.77587  3.90938 -1.53268
-3.85847   5.1808 0.259801
-0.330793    2.6821 -0.165512
-0.721004    3.5602  -0.95249
-3.86342  1.40502 -1.59321
-0.123364   3.79822  0.365333
-4.01113 0.499812  2.25596
2.01801 3.23498 1.53235
 -1.1712  1.33886 -2.06087
 -5.10092   5.29762 -0.146569
 -3.93342   4.87025 -0.628926
 2.45587 0.535464   2.2847
  -5.1032   3.69054 -0.189901
-2.90179  1.80025 -1.42858
 3.28082 0.456921  1.77325
 3.31956  1.59299 0.722169
-3.82192  2.63718 0.656633
-1.00187  1.43533 -2.38264
-0.155466   3.05371  0.535416
 1.90947  4.15593 0.901287
0.114799  5.14314 0.532716
-3.83571  4.06101 0.505539
 1.56847 0.971738  2.33123
     2.04457 -2.84974e-06      -1.4948
 3.34139 0.448575  1.48074
-0.290751   1.39098   2.40887
 -3.88023   2.82075 -0.461957
 -5.10649   3.49247 -0.256408
    -1.4311 1.39226e-06   0.0951667
 3.32612 0.514796  1.18818
 2.90179  2.00691 -1.17903
 2.19238  3.12183 0.445681
     2.4228 3.51525e-06     0.95809
   4.16372 1.1943e-06   -0.29458
 0.816289   6.85496 -0.356236
   0.157576 4.33936e-06      1.0043
 4.22311 0.442513 0.935568
-0.590109  0.164415  -2.54769
   4.18413    1.79416 0.00773403
-4.32918  2.49988 0.931114
  4.17773   2.03838 -0.525432
0.807225 0.145507 -2.62126
 3.78645  2.04463 -1.23796
-0.198223  0.122427  -2.56912
 1.87681  3.29972 -0.47052
     2.54259 -1.52285e-06    -0.966446
-3.73285 0.469852 -2.10856
0.311262 0.672633   2.3972
-0.209679   4.69917  0.119996
  -0.240157 1.60301e-06    0.310279
 1.94161  3.60157 -1.80061
 3.17319  1.04599 -1.72764
     1.58868 -4.96815e-06     -2.15061
-5.09199  2.05398 0.024753
-0.0299863    3.54728  -0.777621
 1.31526  2.01855 -2.64676
-3.83299  4.48916  0.85097
 1.35288  2.58479 -1.34457
   2.11332 0.00582276   -2.64265
    2.98705 9.11826e-07 -0.00248514
 1.31444  1.29825 -2.64855
-4.35328  4.26364 0.932158
  4.18939   1.16036 -0.416054
 -4.89088   5.84064 -0.602863
 3.51214 0.825425 0.677704
-0.0772204    2.75789   -1.77435
   -2.94419 2.71889e-06    0.757207
  -3.49014 9.9636e-06     1.3352
   -2.23626 1.67428e-06     0.23833
 1.98571  3.86018 -1.64765
   0.386236 6.94784e-07  -0.0417188
2.74555 1.43661 1.80056
0.0414051   3.85961  0.605507
-2.92833  1.17313 -2.23539
-2.22486  0.69095 -2.14037
0.694964  3.00985 -1.20134
 1.44542  3.25623 0.783766
 4.59969 0.576056 0.849865
-0.135317   3.77925 -0.598047
-1.13341 0.385941  -2.0732
 4.34614 0.719503 0.907387
-4.09003  1.02767 -1.99169
 4.18331 0.147882 -1.53446
 2.84884  1.71568 -1.17552
-1.33186  1.79396 0.996616
-4.27801  1.03944 -1.83047
   0.157143 5.62537e-06     1.34668
   -4.14817 4.61498e-07   -0.162852
    2.51387 3.15681e-07   -0.324031
 1.59923  4.31614 0.654677
1.23454 2.51888 1.01443
 3.69692  1.66104 0.665523
-0.585168   3.93392  -1.13159
 4.75002 0.469203 -1.03483
 2.06998 0.967845  2.30495
-0.750971  0.195888   2.43921
 1.80456  3.68164 0.381802
  1.28549 1.871e-05   1.90161
3.30396 1.17694 1.76246
 3.65326 0.103638 -1.21388
-0.159377   1.57214   1.94614
-1.43326  1.43934 -1.95129
    3.29995 8.16475e-05    0.538523
-5.05172  2.25872 0.756257
     2.57539 -2.92198e-06     -1.45128
     -1.994 0.000165288     2.07674
2.73817 2.15369 1.50614
-0.167498   2.84162 -0.627461
   -0.50854 1.70495e-06    0.394542
-4.67469 0.754784  1.49351
   -3.28667 3.00183e-07   -0.179982
 3.02648 0.847324  1.80173
   0.498301 4.38106e-06    0.922611
 -5.11274   1.75372 -0.469987
 3.54834   1.2284 -1.21127
    2.06821 3.52438e-06    0.912494
-0.654813   2.33729  -2.00742
  2.20159   2.45675 -0.696073
4.36075 2.12512 0.76019
 4.08286  1.30191 -1.50839
-4.16743  1.19369 -1.58156
-0.110499    3.2494 -0.666076
1.77017 1.84529 2.07498
  4.1319  2.06973 0.183715
   -0.901889 -2.68952e-06     -1.89801
-4.08855 0.230744  2.20059
-3.82802  5.28681 0.580607
-0.922927   2.36886  -1.64693
 -5.09077  0.606887 0.0480952
  -5.05156    6.42339 -0.0151809
 1.89004   -4e-06 -2.04107
 3.72786  1.67755 -1.22269
  -5.08591    6.10097 -0.0299536
 -5.11244 0.0921977 -0.429441
1.74737 1.76017 2.28081
-4.75391  1.05576    1.269
   -1.62813 5.69273e-07   -0.188512
     1.57378 -3.91522e-06      -1.7782
    -2.7788 2.26222e-06    0.551617
    0.445798 -2.30996e-06    -0.987136
2.55213 3.18409 1.26503
-4.17791  1.03062  1.96438
   -3.07963 6.95514e-06     1.32707
-4.75446  1.42063 0.944564
-1.04749 0.493497 -2.48924
 -4.42259   6.93835 -0.364422
    -4.06993 -1.95309e-06     -1.40706
-1.79342  1.97831   1.2961
0.404373   2.3739  2.02274
-2.95012 0.486298 -2.53325
1.54547 3.27943 1.01215
 1.11797 0.193679  2.35485
-4.98134 0.609603 0.975949
-0.823596   1.08305   2.34114
 -3.89277   2.26138 -0.589274
-3.85936  4.29628 0.242938
 3.34947  2.19704 0.648984
-5.05237  6.28327 0.317258
  1.64898   5.46824 0.0406978
3.67483 2.43596 0.24941
-4.67767   8.0544 0.170478
1.81791 3.64788 0.68448
-3.23638  1.07127 -2.40678
-2.51842 0.856025 -2.16316
 -1.858 1.57845 1.92653
 2.04714 0.601624 -2.68702
-4.09945 0.401663 -2.06245
 1.47893  3.87932 0.753075
-0.251599   1.12073   2.42645
  1.42727   5.81695 -0.170806
0.447681  2.12027   2.3898
-3.12271 0.784998  2.65467
    1.66409 2.11745e-06    0.427951
 2.53671   3.0065 -1.43038
-0.69461  3.40222  1.37624
   2.609 0.981037 -2.26798
-2.33112   1.6639  -1.7389
-0.913694   2.16149  0.993578
-0.0382402   0.558466   -2.57761
    1.18845 5.80211e-07   -0.133639
 0.733303   6.01704 -0.516118
-4.39334  5.64758 0.933999
 -3.74159   1.84997 -0.710586
 3.34317  2.07215 -1.20162
   -2.58715 0.000407911     2.34128
-0.224862   2.63369 -0.385045
   -2.52372 5.87491e-06     1.60789
    2.79913 1.18354e-06   0.0613312
   -3.98969 1.52213e-05     1.92038
  2.721 2.07227 1.77072
-3.84542  1.67745  1.13539
-2.63052  2.04507 -1.07907
    2.54878 2.74664e-06    0.745624
 2.24291   4.5117 0.988755
 2.51906  2.88549 -1.64314
 -4.23199   7.49653 0.0294559
 4.76134 0.923606 -0.68818
-0.558546   3.17526  -1.77412
0.855588  4.43587 0.961468
  -4.9408   2.76465 -0.596795
 4.79747  1.42708 -1.45977
-4.69973  2.37575  0.94306
   -2.40763 2.01439e-07   -0.260406
-1.64727  1.75434 -1.62079
    2.19505 8.58706e-06      1.8773
   2.02908 2.8681e-05    2.04528
 -4.8588  6.43681 0.617855
-0.56447  1.27305  2.44078
  4.17733   2.43659 -0.525173
-2.72966  2.52261 0.279673
-0.275327   4.03789  -1.40439
 -4.77419   6.23724 -0.387686
 2.17293  3.85943 0.733753
2.47861 3.61536 1.12013
0.30617 4.82363 -1.0466
-1.59145 0.691435 -2.12369
   -3.77494 1.05751e-05     1.42699
 -0.59554   3.70668 -0.937734
 0.21864  2.44411 -1.41832
-0.12149 0.395339  2.41992
   -3.70009 1.41312e-06    0.285576
 2.16898  3.59041 -1.74493
 -5.0673  2.47471 0.495116
  -2.67316    2.58238 -0.0723192
-1.40282 0.236568  2.14521
-3.66246 0.397956  2.33962
   -4.12407 1.89672e-06    0.513183
  -1.43726    2.67869 -0.0948797
-5.02975  4.89098 0.886395
   3.3322 0.0284102   1.55436
-0.984639   2.62893  -1.12731
   0.830432 2.13789e-05     2.15277
 3.13071  1.77646 0.734023
 3.17039  1.38369 -1.46862
  -1.813  2.31523 -0.72575
2.39121 2.51471 -2.1746
-0.225027   4.04722 0.0624378
  3.30434   2.56197 -0.562458
-4.53803 0.971625   1.5345
1.28903 2.51898 2.20736
1.58731 3.48009 -1.0514
0.907332  2.70509  1.41832
0.527174 0.520266 -2.60728
    2.56678 0.000616992     1.80059
 2.79789 0.369265 -2.27334
   -0.793001 -9.03016e-07    -0.635144
-3.73787  1.72986  -1.0448
 -5.0607  4.25302 0.614297
 0.168626   3.46822 -0.980314
 -4.51339   1.85518 -0.632453
0.0834526   1.95506  -2.58263
     3.98013 -1.49507e-06    -0.763161
-0.115126   2.23091  -1.99568
-3.82947  1.54046  1.48465
2.31029 1.32105 2.28741
 -2.69605   2.31092 -0.623623
-4.05684 0.807778 -2.08044
   -0.994489 -1.41965e-06    -0.857089
     -2.4322 -2.32092e-06     -1.06815
2.14324 1.31367  -2.689
-0.969679   2.40113  0.554414
-0.748528   2.12067  -2.08256
  1.91464   3.74484 -0.295142
 2.12357  4.49445 -1.37448
 4.22117  1.93499 -1.17997
-0.440226   2.64255  0.528517
    2.30551 1.14082e-08   -0.551205
   0.646977 5.53056e-06     1.17538
 4.00879  1.80552 0.861576
 3.09417 0.263319 -2.26606
  1.80793   3.87185 -0.625874
 3.81497  1.21657 -1.28387
 0.114195   5.63531 -0.248722
0.922529  2.86936 -1.21357
 -0.17184      3.48 -0.508249
 -3.87348   1.98787 -0.507172
-4.92968  3.11357 -0.59722
-3.63802  1.63672 -1.33927
-0.763637   3.34168  -1.60632
1.78465  3.7777 1.15234
 -0.735104 2.7505e-06   0.799814
 4.67842  1.00499 0.837446
-4.04976  4.70196 0.912409
 2.37096  3.27286 -1.70102
-3.68295  1.09015  2.18311
0.390111   1.8114 -2.60009
 -4.84729      6.82 -0.279224
-3.48307  2.08157 0.494435
 -5.06456   4.59009 -0.572578
   -1.95024 1.50492e-06    0.164657
     1.31566 -3.26501e-06     -1.51944
  1.74909   4.46273 -0.732376
 1.97443 0.226737  2.30994
0.167301   3.3387  1.40193
   -3.05961 8.10456e-07  -0.0382858
  -4.37291 0.00173136   -1.29533
   1.92672    4.30425 -0.0762318
-4.47786 0.505381 -1.49851
 1.47248 0.944269 -2.65685
  -4.6938 0.0559386   1.47737
  2.05251   3.54916 -0.935937
-0.848773  0.490301   2.09008
-0.296696   2.76744  -1.85054
-1.39423  1.68904  1.28276
 1.14375   5.5077 0.623791
 1.05444   3.2081 -1.19814
 3.19008 0.810225 -1.43778
-4.40311  1.47751 -0.72519
 -3.8574  3.83977 0.283931
   -4.46947 2.54853e-05     1.43387
   -0.154619 -3.16322e-06     -1.42331
-0.427291   2.49018 -0.491106
   -3.92978 3.88966e-06    0.718973
-0.0230609    3.70109    -1.3337
  1.6503    3.141 -1.83815
-3.6038 1.81256 1.08198
  2.5252   1.2069 -2.39453
-0.877589   2.61879  -1.70226
 4.29189 0.504863 -1.49709
 -4.0825  4.21145 0.915157
  2.5432 0.285401 -2.31814
 -4.72565   1.62342 -0.616146
   1.99257    2.63268 0.00375308
-4.10662  7.23984 0.254496
 2.99644  1.45915 0.757386
 -4.50566   4.39087 -0.632958
-1.07807   1.4643 -2.01348
-2.44322  1.91736  1.39931
    -2.19376 -3.18384e-06     -1.46797
    1.67182 3.20891e-07    -0.38231
   -4.51078 5.64353e-06     1.10663
   -3.93101 1.53251e-05     1.64032
 -3.87813   3.15775 -0.452904
    0.99572 5.90837e-07   0.0072952
-2.59051  0.50878 -2.26846
-4.29421  7.61917 0.285697
 0.156449   5.50491 -0.578089
 -4.30502 0.0949817  -1.92816
-3.82749  3.77882 0.585296
0.776549 0.671433 -2.62036
 -4.90753   4.95033 -0.601721
 2.33905  1.74462 -2.24865
-4.26269  7.19488 0.499472
 3.48622 0.571189 0.678389
 1.17483  2.46954 -1.46732
    0.606754 -4.24944e-07    -0.449833
 -1.23848   2.38316 -0.636431
-0.81678  1.35187  2.32503
      3.9413 -2.09734e-06     -1.05556
-4.92406 0.693509  1.17859
 2.34317  1.48613 -2.26824
 -3.6892 0.942765 -2.11348
 -3.87668    4.1068 -0.384857
-0.233441   4.72042  -0.15808
1.11118 3.60388 0.92507
  3.96623   2.42183 -0.997302
-3.8207 2.25472 0.65092
0.486534  0.83408 -2.60513
-3.12991 0.169884  2.64993
-1.02761  1.05554 -2.50006
-0.708736   2.46197 -0.529319
-0.26188   4.3487 0.926006
-4.85505  3.46056 0.944234
    4.05282 1.46229e-06  0.00545254
   1.68112 3.2423e-06   0.763175
-5.04793  1.43777 0.820124
 4.15003  2.62802 -1.24727
-0.227135   4.32214  -1.35064
 -5.0605  3.33354 0.624696
 2.60573   3.0573 0.726143
 1.88381  2.91492 0.388271
 -3.87566   5.03332 0.0359621
 2.39567  2.59134 -1.79705
 -5.04789   0.68383 -0.717836
0.451941  3.67539 -1.14274
 -4.34302   6.18722 -0.530667
-0.368739   2.30813  -1.85796
  -4.6414   5.74063 -0.622609
  1.8541  4.71073 -0.45557
-2.16467  2.41789 0.583111
 -4.52398   2.58998 -0.631089
   -3.59377 7.22973e-06     1.04591
    1.28775 2.89141e-06    0.602041
2.73642 1.34932 2.21852
    2.73736 2.01594e-06    0.389495
  1.67376   5.34381 -0.435231
    -3.76846 -2.65573e-06     -1.41846
   0.388039 0.000619571    -2.44965
 4.52281  1.02671 -1.11264
-4.68825  6.84002 0.674623
 2.54386  2.61256 -1.48683
  4.03108 0.0163305  0.913757
    0.335115 -4.31978e-06     -2.13826
 3.82776  1.49513 -1.35822
 1.70984  3.86617 -1.25405
 1.30707  2.36307 -1.98309
 1.03569   4.3699 0.938122
-3.21499 0.355424  2.60588
  1.0715   2.9605 0.935005
2.50963  1.4399 2.17647
 2.24389  4.08384 0.898025
-3.01025  1.49277 -1.90998
-5.00354  5.77749 0.921095
-5.05504  2.73178 0.682513
-4.79556  1.15457 0.958479
   0.944698 1.09112e-05     1.84351
  3.12108   2.67512 -0.341082
-4.67598  1.84959 0.942385
 1.31208  2.34697 -2.34306
-2.19247  1.98144  1.30172
2.14134 3.91021 1.22089
-2.57944  1.89277 -1.33411
0.692253  4.08232 0.950781
  4.77344  0.749113 -0.536903
 -5.00442   5.51317 -0.593166
-2.42214 0.403218 -2.13571
0.590194  6.28944 -0.21197
-4.25918  4.85649 0.928612
 2.25989 0.282394  2.29501
0.560888   3.2805 0.924198
0.300346  3.05575 0.951658
    -4.6806 4.99811e-07   -0.680991
   -1.84655 6.89505e-06     1.65383
  -5.09444    0.97707 -0.0219729
-5.05907 0.969341 0.651348
-0.16155  3.53287 0.291195
-3.73731  1.15856 -1.83993
-0.0644774    5.33274 -0.0691536
 2.55569  2.37072 0.431763
-1.06004  1.90749 -1.99412
 3.52504  2.21365 0.628203
0.253244  3.00009 -1.07597
 3.84712 0.138765 -1.47907
    4.457   1.02347 -0.746292
   -2.08446 2.71446e-06    0.701002
 -3.37224 0.0841512   2.45248
-2.32954  1.70885  1.73712
-2.01131  1.49541  2.06278
-4.58941  2.04967 -0.62668
 3.58046  1.37977 0.672125
-3.04122  1.90022 -1.20642
2.72917 1.76345 1.37215
  -5.09645    5.00307 -0.0605579
  -4.6501    7.7459 0.0365778
 1.77781  4.81548 0.347715
-2.45733  1.04192  2.37198
 2.75586 0.380439  2.08188
0.974299 0.640793  2.36241
 2.34187  2.20449 -2.23522
0.344386  2.47756 -2.12155
   -0.711207 -3.10316e-06     -1.28377
 3.15529 0.778445 -2.06139
-3.98236  1.23151  1.66159
 -5.10306    4.6335 -0.186842
-3.88517  6.25272 0.143933
 -3.24045   2.00139 -0.906735
3.33776 1.32473 1.47487
-0.625007   1.02466   2.44605
 2.55409  2.77388 -1.20435
 4.81832 0.372782 -1.45984
-4.69994  6.87705 0.652184
 4.80072 0.297205 0.836566
 2.75265 0.780439  1.96178
    4.46338 5.77004e-06     0.50141
-0.983472   2.92343   -1.1356
 1.05263  4.40187 -1.19571
 4.80193  1.29033 0.802541
-3.83307  4.34512  0.52537
0.139063 0.864345  2.40624
   -3.84477 6.96477e-06      1.0989
-4.84376  5.77379  0.94562
-1.21616  1.64439 -1.02075
-0.424345   3.00769  -1.83281
-0.798526   2.43728   1.85081
    2.19483 4.61558e-06     1.28279
-0.17169   3.1729 0.266451
-2.17477  1.79581 -1.54024
 2.52552  0.53714 -2.37871
-3.55954  1.40868  -1.7994
 -4.9427  4.13607 0.944003
 4.80594  1.49151 0.687256
-1.06255 0.750326  2.01733
0.114764  1.05689  2.40748
 -4.99827  0.751038 -0.923602
-0.147893   5.02373  0.106022
  1.4556  4.68814 0.750769
-5.06486  1.44257 0.541538
 -3.8764  5.53485 -0.40756
-4.38135  5.57691 0.933531
 -3.87718   5.13115 -0.377029
   -0.504461 -1.39432e-06    -0.764002
0.336289  2.72765  1.14146
 -1.95883   2.45496 -0.471851
 2.56106  1.80362 -2.01205
 4.13522  2.31601 0.120751
0.615053  4.02866 -1.19002
 -4.26292   6.15133 -0.612356
0.393388   2.5202 -2.46057
  1.44077 0.0422967  -2.64748
-4.27544  1.41388 -1.11522
 -5.09313   3.71808 -0.547231
-5.06976 0.632402 0.448513
-4.75334 0.124241 -1.20216
3.34524 1.00965 1.55541
   2.55921 5.0982e-06    1.45462
-4.68035  3.72186 0.942501
-2.78609  2.52726 0.179529
   0.5498   6.06015 0.0639692
  3.13279   2.54654 0.0826853
 1.00601   2.5633 -1.99837
     4.4615 5.74341e-06  -0.0665811
   -0.785002 -1.79372e-06     -2.08861
   -1.59123 6.25779e-05     1.98806
 0.11357  1.13813 -2.58552
    -2.49936 -1.18553e-06    -0.640452
     1.32651 -1.76617e-07    -0.547323
0.366848   3.3075 -1.10174
   -1.43808 1.34329e-05     1.57576
0.172294   2.3702 -2.46081
 1.80852  3.11087 0.404741
-0.527579   2.88672  0.545499
    -3.43343 -1.43601e-06     -1.83828
  0.64609   6.90375 -0.224005
   -2.62101 1.68639e-06    0.287832
-3.35684  1.47349  1.92095
   -0.316337 -6.68902e-08    -0.314294
 -3.87605    5.6262 -0.107388
 -4.76988   6.07743 -0.607914
 1.76801  1.02458 -2.67236
 2.52167  2.35262 -1.63545
  -5.1017  0.223539 -0.160498
  0.0827998 -2.5386e-06    -1.01461
     2.03304 -1.00862e-06    -0.812124
-4.45123    2e-06 0.395737
 3.16314 0.369321 -1.91802
 4.91633 0.139613 0.584162
0.321474  3.31587  0.83084
 -4.53892   7.33403 -0.196015
   -2.42949 3.79607e-06     1.12926
-4.74034 0.872368 -1.20918
0.824297  1.55288 -2.62284
0.152051  4.65802 0.708998
-0.148012   2.51393   1.71014
 -5.0463  1.85049 0.832967
-4.14972  1.07754  1.58801
  -4.5558       6.8 -0.423229
0.526938  3.00213 0.913422
-0.579598   3.62929   1.38767
   3.6726   2.57435 -0.561916
 -0.697263 0.00313273    2.37864
 4.74942 0.723502 -1.04198
 2.28358  3.64108 0.643645
-4.81258   7.1419 0.425515
  4.78798  0.107305 -0.277688
-3.21832  1.54678 -1.75472
 2.46236  1.13248 -2.68767
-2.92988  2.27874 0.662845
0.732048  5.14603  0.84585
-3.23776  1.72986 -1.42021
 0.475038    5.3394 -0.952298
 -4.27362   1.66551 -0.650421
 2.46081  3.36671 -1.41268
 2.69628  1.44852 -1.78765
 0.20644  2.60472 -1.33887
  -5.09483    5.32517 -0.0301125
   1.09249    6.15163 -0.0515381
0.981064   3.6765 -1.20567
  1.75922   4.16351 -0.715618
-0.232336   4.51862  -1.19656
  -3.5999   2.05893 -0.131768
0.612061  2.36287  2.37512
-0.680092   1.44381  -2.37113
0.562696  2.24779 -2.60916
0.478863 0.951542  2.38839
  2.98774 1.842e-06  0.405096
 -2.4343 0.815751   2.4928
-0.935793   3.13051  -1.37586
   -1.722   2.16864 -0.981424
  1.7236  3.41752 0.609033
-0.688878   2.68673   1.82158
  1.84305     5.026 -0.158066
-0.252473   2.50515  0.508248
  3.8035 0.924701 0.660851
   -1.63107 2.51292e-06    0.556694
 -3.87628   5.27124 -0.183663
 3.32875 0.203639  1.23861
1.91892 1.40797 -2.6476
-3.34772  1.85618  1.21412
    -3.52377 -2.06937e-06    -0.889414
    2.24038 5.18654e-06      1.5554
-3.83022 0.924083 -2.10203
-4.97387 0.328165  0.98474
   3.55596 0.00114725   -1.11554
  3.97103   2.83727 0.0753861
-3.43257  1.12973 -2.16199
0.947387  2.37884 -2.62919
 2.75798 0.569734  1.90009
 4.42339 0.211267 -1.49116
-4.66608 0.286909  1.50035
  -2.27551 2.1558e-06   0.485516
 -2.29882   2.51781 -0.332151
    1.78252 4.10187e-06     1.04507
   -1.07662 1.93981e-06    0.452468
-3.00026   1.0793  2.54877
  4.07869   1.53486 -0.848501
   3.71138 8.2174e-07 -0.0742045
0.737062  4.87594 -1.16709
     1.16468 -4.33799e-06     -1.79493
0.226945  3.86512 0.767592
 3.99411  2.55436 0.173315
 -2.35812   2.33193 -0.649513
 2.27367 0.862295 -2.69853
   2.585   1.4882 -1.96113
  0.0437676     5.52735 -0.00331804
     3.51819 -4.49654e-07    -0.441474
 1.64583  3.80436 -1.43857
-4.29599 0.946355  1.64386
  2.07417   2.75298 -0.779392
-0.689498   2.67174 -0.152126
 4.76724  1.00863 0.418916
  4.18828   2.61021 -0.357132
-0.0755756    4.10256    1.12328
 -4.71329   3.95823 -0.617107
 2.3592 2.40593 1.75213
0.492282  5.73873 0.439296
 -4.97235   1.06669 -0.620862
-1.91174  2.36279 0.669584
     4.45652 -2.23262e-06     -1.01438
0.154439  2.04277    2.309
 -3.8053  1.93767 0.741107
3.11972 1.44493 1.38687
  -2.37305 0.00580388    2.31882
 -4.84293   4.20366 -0.607076
 -1.86885   2.69932 0.0631835
 1.77007  3.80407 0.913862
-1.57313  1.79666  1.56912
 1.09441 0.616922 -2.63704
    -1.0841 0.000645739     1.88619
3.32201  1.2939 1.14505
2.98728 1.44496 1.06777
0.780947  2.02572  2.37256
   -4.22901     7.45326 7.44187e-05
3.33179  1.1728 1.30339
  -3.9232   3.45032 -0.621592
-3.46607  1.61766 -1.50451
 0.821041   5.76091 -0.769012
2.80878 1.20547 1.82045
0.643034  2.67663 -2.28622
  4.60786   1.02257 -0.205149
 3.32928  0.40067 -1.20705
  3.14119 0.0195158  -1.86514
-3.92494  6.16333 -0.35219
-0.677828   3.58068  0.971513
-5.07974 0.385544 0.258404
-5.01814  6.87929 0.162934
 -2.02227    2.6544 -0.115526
-4.42519 0.286172 -1.75601
-0.0144293 0.00652374     2.3689
-0.0981752    1.05308   -2.57444
-3.86233  3.54409 0.873475
 -5.10765   3.02485 -0.275308
 2.56319  1.72252 -1.63248
-0.430892     2.789   1.72516
    2.66752 3.98558e-06     1.13029
0.0508213   4.51876 -0.876536
 -4.15096   4.46752 -0.648904
 -3.06409   2.38066 0.0127835
-1.08273  2.24686 -0.90033
 4.21215  2.54432 0.555621
 4.58493  1.02342 0.321044
-0.236535   3.25665 -0.251694
  -4.83088 6.6262e-06   0.660922
-0.242688   4.34239 -0.102043
 -4.16876   4.81479 -0.649152
 -4.0992  2.67021 0.916829
-2.51194  1.48174 -2.00828
  3.45301   2.43418 -0.792461
    0.112272 -3.66688e-06     -1.57953
-1.02433  2.11389 -1.47474
 1.49768  3.08531 -1.70823
 2.44082  2.55429 0.105256
-4.38903  2.01226 0.934038
 -5.03735  0.308751 -0.791217
 1.88674  4.46848 0.172956
-4.91658 0.806839   1.2062
 2.16477  2.65727 -2.02799
-1.91394  1.75373 -1.61997
-4.96516  5.89181 0.942414
-0.675791   1.45688   2.05366
0.637578  5.19044  0.81321
   3.34586 6.1063e-07 -0.0759527
 -4.02387   2.84563 -0.646093
 4.82773 0.370459 0.427469
 1.4411 2.39433 1.34694
 -3.92428   6.09931 -0.617532
   -1.54634 3.56328e-06    0.928276
   -3.03569 6.69951e-06     1.67362
-4.01046  3.39078 0.907116
 1.68209  5.15936 0.343121
 -3.88911   6.57321 0.0893765
1.13799  2.6081 1.83324
0.0201229   3.40693   1.52868
1.54889 3.06774 1.25087
 -5.0702  5.81387 0.440365
-4.66778   5.5891 0.942136
 -2.3645 0.281797  2.39096
 -5.11119  0.644666 -0.488548
1.95472 1.44668 2.03403
  1.05295   5.64316 -0.824061
 1.90792  4.70501 -0.15016
 2.47707  3.52421 0.771612
0.996189  2.57842 -1.74467
    -1.31578 -2.37091e-06     -1.16222
 0.137587   5.07462 -0.844649
-0.394219   3.42554  -1.74251
-0.792686   2.86045  0.814839
-4.99104  6.18268 0.607064
-5.07835  2.13965 0.285379
-5.06922  1.15362 0.458199
    3.64822 2.27607e-05     0.38141
 0.575204   6.57957 -0.113179
3.01307 1.44459 1.63511
 -3.88882   3.94231 -0.571698
-0.157023   4.58097   1.02625
2.13747 4.30734 1.17765
-0.728414   2.55442  0.736049
-0.791283   3.21106  0.982255
-3.11557  1.87974  1.31054
-0.457683   4.21651   1.10388
-0.0927485    1.64129   -2.47291
  2.06271   2.65148 -0.336931
    4.18753     2.49362 0.000975192
   0.886018 2.61981e-06    0.485409
 2.15429  3.34917 -1.84548
-3.28884 0.985653  2.50463
 2.57187  2.07405 -1.40119
-5.08781  1.55983 0.104308
-4.19354   6.5414  0.67775
 -4.60405   3.57466 -0.625349
 -3.87052   2.00561 -0.119737
  1.77748   5.01269 -0.499525
 1.00598  3.87163 0.944074
 -5.11205   2.25417 -0.462956
   4.1813   1.03902 -0.858503
-5.05901   3.8663 0.649971
 1.30754  4.72814 -1.08507
    -2.61962 -2.74794e-06     -1.36955
-0.172081   3.75683 -0.983909
0.451325  4.21618 -1.14099
    -1.81763 -3.78467e-06     -1.62106
-3.43083   1.2276 -1.90919
-1.54255  1.54334 -1.63669
1.67357 2.25171 1.96555
-4.85681  2.16242  0.94579
 -2.12077   2.27944 -0.770521
0.838341  2.78678 0.965121
  2.3395  2.71555 -1.93008
   -0.334986 -3.98035e-06     -1.95171
 1.65977  2.22802 -2.07077
0.125187  1.91498  2.01026
-1.51803  1.06824  2.16913
 -3.89977   3.66247 -0.597396
 1.78572  4.13407 -1.27694
  1.9904  4.28003 -1.55905
 -4.4034  8.25963 0.261508
 -0.0588999 5.78661e-06     1.41471
 3.31209 0.716329 0.906069
   0.454524 6.11993e-06      1.3949
   2.21529 0.00839182    2.25292
 4.14643  1.63815 -1.06852
-1.34646  1.46842  1.45814
2.71428 1.96679 1.24587
-0.818543   2.93855  -1.66701
 5.09145  1.22758 0.646727
-3.99501   1.4657 -1.38693
 3.93643  2.08952 0.700522
    1.14435 4.38872e-06     1.02809
 1.27234  5.26753 0.694032
  4.08486   2.31108 -0.746246
  -5.1023   2.45829 -0.172229
   -3.39409 0.000417158     2.17031
    2.46419 2.05974e-06    0.426895
-1.73421  2.54266 0.344369
 3.82709   1.4425 0.661255
  4.04113   2.70574 -0.661151
  -2.95903 0.00170838    -2.4577
 4.72029 0.850532 -1.49886
 1.61414  3.37512 0.763463
 -2.99217   2.23295 -0.620891
 2.86103  1.81082 0.709674
  3.2247 0.823834 -1.25758
0.233036  5.00524 0.692045
2.33984 3.26191 1.45907
-0.0967343    4.43317    1.19368
 3.43214  1.87073 -1.20655
0.759121  3.48196 0.956613
 1.17079  4.69298 0.892915
-0.862352   2.04448   1.89378
    -2.72357 -1.44961e-06     -1.77913
-1.79243  1.58631 -1.88633
  4.9499 0.433396 0.708867
-0.495464  0.621959    2.4395
   -3.33119 7.10497e-06     1.77795
-3.40725 0.212365  -2.4711
  4.07203   1.85576 -0.900394
-0.235189   3.82811 -0.263387
0.319185  3.88906 -1.07812
0.691448  5.40995 0.731879
-5.06364  2.88571 0.565685
-2.25286  2.35997 0.680006
-0.973711  0.761356  -2.52453
  3.19202   2.38745 -0.861181
-4.97626  4.40624 0.937243
   -2.84452 4.15469e-07   -0.187137
0.763517  5.76612 0.508512
-3.99658  3.85577 0.906132
  1.88878   2.86181 -0.764597
 2.14156  4.01929 -1.42291
-1.13245  2.03955 0.977384
 -4.06662   7.14561 0.0470003
0.080732  2.21155  1.88109
-4.66951  2.99985  0.94219
0.231765  2.82245   1.4549
   -0.832227 -3.34414e-06     -1.56119
   -1.06563 7.99091e-06     1.54187
   -2.78095 5.01086e-06     1.45477
    -2.94764 -2.61621e-06     -1.11549
   -1.20291 8.48822e-06     1.32899
    0.807507 -2.57207e-06     -1.13416
   -1.50443 1.79745e-06    0.289947
 -4.12794   3.22081 -0.649093
0.842354  2.65337 -2.45769
-0.285875   1.44277  -2.42046
-0.00978325     4.63916    0.538839
 -4.46378   3.84618 -0.635696
-3.77755  1.95088 0.180025
     2.65633 -3.75743e-06     -1.68919
     1.83672 -2.04803e-06     -1.13685
-0.993277   2.45107  -1.38661
-4.84322  6.90242 0.545567
   0.659701 6.00859e-07    -2.33062
1.96914  3.0072 1.58532
     1.17182 -1.53033e-06    -0.979248
-3.85317  4.64234 0.340209
 0.12852 0.826873 -2.58634
0.122782  3.33171  -1.3413
-1.41746  2.07109  1.04169
 4.35546  1.48676 0.810712
  1.65848   4.97244 -0.735985
  -0.755865 1.04845e-06    0.140361
-1.71222  1.28614  2.17653
-3.43312 0.280068  2.36677
   -1.13566 3.12394e-07   -0.281228
 -4.43371   4.77994 -0.637576
 -5.08985   3.31819 0.0647663
 -4.76504   4.55766 -0.613169
-1.46951 0.929482 -2.05245
-1.11099  1.39653  1.99442
-0.997766   1.44575   1.78289
   -0.107302 -2.53208e-06     -1.05097
0.663842  1.32104 -2.61442
  1.92307    3.2395 -0.016869
 -4.27641   2.81916 -0.647958
0.253129   1.8561  2.39641
2.67593 2.75927  1.0302
   0.383884 6.44511e-06     1.50041
 3.15759  1.30445 -1.99265
-2.44682  1.76136 -1.57206
 4.20711  1.85677 0.908186
0.650548  1.27177  2.37937
-0.791337    2.6989  -1.93038
0.353968  2.14093 -2.59822
0.720011  2.49189 -2.61628
    1.42283 3.60935e-06    0.833514
1.41324 1.66401 2.33923
 -1.06644 0.0791215  -2.17732
     1.83142 -3.42233e-06     -1.70967
 3.06267  1.08989 -2.27491
 -5.10303   5.01508 -0.522225
 -4.95739    2.0111 -0.595973
 -3.62363 0.0287637  -2.22024
 -4.48038   8.32037 0.0484183
-0.0448458    2.22109   -2.38201
1.03548 1.02911 2.35919
   3.19722 0.00016293    1.12412
 3.34418 0.711194   1.5903
  -4.74283 0.00147637    1.24447
   0.218247 2.45332e-06    0.511175
-2.84386  2.50434 0.149529
-1.46406   1.9319  1.33141
-2.78681  2.29267 0.715853
  4.20673   2.88387 -0.272561
   4.79928   0.179889 -0.0780131
-0.436492   1.13686  -2.55671
 1.07642  4.89784 -1.14369
  3.9661  1.44073 0.866533
-2.74158 0.682885 -2.43017
2.48571 1.81846 1.82991
 -1.30754 0.0193879   2.01358
 -4.26457   6.65366 -0.406792
-1.30162   2.3247 0.706862
 -4.06987   5.78285 -0.649509
 3.89739 0.607953 0.676771
   -4.81498 0.000228257     0.90806
 -4.31688   3.41972 -0.643704
0.954639   5.1385 -1.09602
-0.233782   3.36495 0.0200788
 2.44568  1.42746 -2.58221
-5.07089  4.00398 0.426172
2.10282 2.74298 1.59335
   3.21905 0.00247151     1.7209
    1.58874 5.22836e-06     1.40213
  -3.32233 0.00162377   -2.41411
-4.19979  6.13455 0.901738
-1.46096 0.992317  2.16339
  -3.87587    3.90275 -0.0162837
-0.873178   1.64674   1.46239
2.34413 2.68802 1.59409
 3.53112  1.48369 -1.21043
  -0.131302 4.02092e-06    0.980069
    0.236254 -6.73603e-07    -0.501713
-5.07969 0.889851  0.25882
   -2.45167 6.80948e-06     1.91545
4.25161 2.06864 -1.3695
 -1.5242  1.84355 -1.17348
-0.850932   2.60496  0.188287
   0.132591 7.21265e-06     1.73409
    -3.71471 -1.02295e-06     -1.79039
   4.76759 0.00110655   0.763933
-3.82903  6.03186 0.605035
 3.03242  2.16514 0.682379
  -0.816404 7.10154e-06     1.64702
-0.118026   5.18803 -0.233003
 -4.96025  0.255845 -0.995959
 2.83602 0.348082  1.81865
-0.319007  0.782192  -2.56288
 3.87096  1.88409 -1.39879
 -1.13803   2.66645 -0.138906
 1.50768  1.97381 -2.59471
0.100038  2.46772 -1.61331
   2.33546    2.66074 -0.0803461
-0.0138325    3.32063   0.557842
 2.94438  1.44484 -1.93783
    -3.20434 -2.55904e-06     -1.07049
 1.91009 0.244999 -2.67981
2.75006 1.70604 1.73267
 3.84042   1.9028 0.663772
    -4.07516 -1.11203e-06    -0.667416
  4.75951  0.245764 -0.837395
-4.29228 0.707774  1.85895
-0.277803   2.23627   1.80166
   -4.91135 0.000546472    0.231462
  3.27539 0.0122588  0.839052
-0.226855   4.40701 -0.327775
-5.05408  4.91615 0.727245
-1.26791 0.650297 -2.06012
0.927252  5.59002 0.629679
-0.464274   4.48094  -1.40763
     1.1919 5.90133e-06     1.59879
1.97374 4.08127 1.15698
-4.12092  4.57151 0.919358
0.444056  2.73507 0.886762
 -3.89859   4.48252 -0.592771
    1.50991 1.78665e-05     2.01682
1.79755 1.47451 2.12738
  2.21301   2.54532 -0.531333
   -4.84453 4.88337e-06   -0.425199
 -2.73535   2.18284 -0.834061
0.291974  4.14428 -1.06545
 1.12127 0.902652 -2.63844
     1.9547 2.62006e-06    0.619883
-3.81142  3.09929 0.785006
   1.8966   4.19975 -0.393824
-4.06613   1.8788 0.914734
 -3.2913 0.603632 -2.52085
-5.08603  4.09164  0.13814
    0.839395 -4.82396e-06     -2.04588
 1.63035 0.313058 -2.66512
    -3.9009 5.39981e-07   0.0398525
-0.625129   1.02941  -2.54681
 1.40555  4.31044 -1.05657
     -3.069 5.18205e-05     2.46661
     1.52702 -7.05153e-07    -0.755147
 1.35081  5.54946 0.468007
1.92849 2.40002 1.59766
-5.04318   3.1565 0.863484
1.56897 1.23979 2.33118
-2.76197  1.35477  2.18752
-0.072852   4.83477  0.405394
-5.06828  5.23732 0.476938
   3.7737   2.37381 -0.925083
     2.14223 -2.28631e-06     -1.20582
  -3.87572    3.57681 -0.0678435
0.634891  2.65393 -1.73056
0.620245  2.51706  1.99537
-4.60665  2.60415 0.940421
 -5.0854  2.46048 -0.55574
 -4.51171    6.5252 -0.448534
 4.24495  2.31995 0.504182
  -4.56304    8.10234 -0.0278137
0.699175  1.01939 -2.61629
-0.582685   3.80234   1.13284
    0.531892 -3.75206e-06     -1.50944
 4.08643 0.446784 -1.53737
1.62635 2.03469 2.32743
    -2.16444 -2.51126e-07    -0.388549
 -3.87795   2.51491 -0.406943
 2.24531   -3e-06 -1.72726
 -1.52595   2.28268 -0.804248
0.838255  4.59538 -1.21232
 1.08361  2.50419 -2.20871
-4.92025   1.0368 -0.87852
 -4.09749   4.03737 -0.647964
0.580072  2.63142 -2.09079
-3.53377  1.49842  1.77713
  1.25138    5.9967 -0.132302
-2.75226  1.74912  1.63956
    -3.53061 -2.65779e-06     -1.19931
 2.51076 0.733381    -2.57
 -5.09848   5.45559 -0.100043
-3.39936  1.04231  2.23321
 2.23483  3.45454 0.535603
    -2.19536 -2.66311e-06     -1.27367
 -5.0878  3.11138 0.103899
 1.11899  2.36527 -2.62841
   0.867047 4.77913e-06     1.04984
1.94096  2.2059 1.78662
   -0.45919 3.39416e-06     0.98737
  2.73546 0.0219363     1.977
  4.18203   1.74036 -0.453896
-4.88497 0.553599 -1.09733
-2.25095  1.47626  2.10177
-4.23321  3.93348 0.927399
-3.96808  6.18911 0.711065
-4.61329  4.08012 0.940509
  1.22353 0.0013021    2.1807
      3.382 0.000102594    -1.01339
1.39805 1.91329 2.33999
  4.07977    1.2593 -0.771616
  -3.06327 5.1803e-06    1.02654
0.380563  5.90841 0.112125
0.227304  2.33121  1.49243
-1.02094  1.73701 -1.36923
 1.92034  2.90902 -1.96928
-3.84835  5.99538 0.866674
   -4.82422 0.000133888   -0.972744
 -4.41458   5.67112 -0.638813
   -3.67114 7.67629e-08   -0.166339
  -0.382319 2.65409e-06    0.645628
-3.83597  3.01098  0.51266
-1.05323  1.99753 -1.68636
-5.06321 0.328027 0.572747
-0.370756   3.76371  -1.58858
-2.76718  1.41942 -2.05423
0.764449  2.60846  2.08733
     1.5061 5.77529e-07   -0.271209
-1.72983  2.02054 -1.20887
-4.44399  1.28898  1.13699
-5.08088  1.34659  0.23607
    -3.82175 -2.23372e-06      -1.0448
  2.5964  3.21132 0.831109
-0.184551   4.58566 -0.479121
   0.923242 3.73405e-06    0.739661
     0.41343 -1.21059e-06    -0.669751
 2.79576  1.43669 -2.20033
-2.26226  1.23025 -2.13604
-0.141039   3.23786 -0.760093
   0.553845 2.19221e-06    0.402268
   -1.18173 3.94813e-06     1.12135
0.972268  2.67889  2.31769
 3.81794 0.317279 -1.29029
 2.1477 4.61083 1.10121
-5.07064  6.04014 0.389354
  1.79461   2.64404 -0.660902
1.65342 3.33456 1.29468
-0.863845   2.14058   1.61339
-0.992077   2.41841   -1.9373
-5.07258  3.14529 0.394994
 -5.10101   4.40053 -0.147706
 1.2764  1.0072 2.34655
   -1.7503 4.4399e-06    1.37758
-1.85972 0.685084  2.18832
-3.86784  5.93812 0.183122
  0.00996678 -9.02206e-07    -0.537401
-1.30958  1.44909  1.09696
 -1.72887 0.0930408   2.18047
    -4.3219 1.35509e-06   0.0339995
-1.01693   1.7965 -1.10515
 -4.44725 0.0201711  -1.61155
    -2.68521 -1.75984e-06    -0.795581
0.0829088   4.80378 -0.876703
-0.66911 0.495841 -2.54455
0.371835  3.96347 0.853688
 3.16136  1.65827 -1.23622
  -3.8762   4.56147 -0.133639
2.62907 2.44919 1.43115
   -2.66989 1.07741e-05     2.08156
-3.94949  2.14611 0.899386
 2.90045 0.902006 -2.27838
  0.0847867 3.61646e-07   -0.203398
0.411633  2.50496 -1.62898
 4.16851  2.15962 0.910741
 2.79932  2.48058 0.216578
 3.18931 0.577722 -1.44939
 4.14609  1.79206 0.408932
0.661098  3.25187 -1.19702
 4.91985 0.964839 0.594513
-1.64494 0.127049 -2.15682
-0.431132   3.64144  0.743903
-1.52832  1.55162 -1.32598
  1.88743   4.21807 -0.434134
   -2.31197 9.37948e-07  -0.0406192
  0.4911  5.06035 -1.06915
-0.829486   2.87088 -0.839534
2.17653 1.44527 2.00645
 2.55533  2.30949 -1.17739
0.883229  3.86644 -1.21383
 -1.0359 0.386096  2.01779
-3.20162   -3e-06 -1.59029
0.0196698  0.674824   2.41251
1.73061  3.5415 1.28827
  4.6944  1.00446 -1.02859
-0.0977164    4.59584  -0.677099
-5.04652   3.6293 0.837067
1.44979 2.77629 0.84993
-1.04387  1.67408 -2.03136
  3.71245   2.53841 0.0668249
     1.07407 -4.21221e-07    -0.518431
-4.23582  3.71222 -0.64846
  -0.392855 0.000281612      2.2626
  0.802875    7.09637 -0.0073392
    0.12069 1.39909e-06    0.120795
   4.76184 0.00239555   0.436209
   -4.2588 0.00685734     1.6939
   -0.79511 4.09439e-06     1.27378
 -3.2044  1.32253 -2.03988
   -0.678027 -2.12805e-06     -1.03593
   -1.56376 9.93785e-07    -1.82596
 -3.8124  5.28767 0.755155
   4.61571 0.00031122  -0.716993
 -5.11029   2.75526 -0.324554
  3.90004    2.5554 -0.712501
-0.467816   1.60205  -2.07923
-0.869935   2.74431   1.03313
  -0.943443 8.09822e-07  -0.0259994
  2.51067 0.0790536  -2.55834
     1.71536 -2.56552e-06     -1.40712
-4.39463  6.30584 0.748622
-5.06469   2.0076 0.544087
-4.31451  7.97226 0.038876
-3.87093  3.36362 0.135021
-1.99718   2.5897 0.275352
    2.83857      2.6021 -0.00262058
 0.20947  2.69399 -1.26027
    1.77901 1.14583e-06   0.0332526
-0.791308   3.22621   1.25232
 2.04447  2.49889 0.224263
   -1.80703 2.69231e-06    0.568893
    2.95331 3.42581e-06    0.932872
  4.74965 0.0836032 -0.980559
0.349106  2.46153  1.18075
   -4.46992 3.13874e-07   -0.452232
 1.61273  3.46951 -1.70974
 1.49204  5.34615 0.480401
 -2.93393   2.05242 -0.985834
 3.82327 0.294567 0.661429
-1.08887  2.68264  0.05679
-0.254902   3.41881   1.61366
-0.984955   2.45205 -0.528206
-5.07595  2.77007 0.331253
-3.83699   3.3419 0.502668
    1.33426 -3.5568e-06    -2.31229
  4.75106 0.0086442  -1.24257
  0.980695 0.00431242    2.30565
  1.68192   3.43668 -0.820868
  -1.6229   2.41149 -0.566241
 3.50131 0.315906 0.676679
1.72182 1.76754 -2.1916
  -0.103423 2.93914e-06    0.684286
 -3.87595   4.18722 0.0275251
 4.78856 0.664018 -0.28158
  2.82601   2.35479 -0.899537
   -0.536712 -3.77194e-06      -1.5853
-2.75277 0.966103  2.66491
 2.61788  1.47642 -1.23883
-0.246409   3.93941  0.895374
 1.60068  3.70119 0.655028
  2.29496   2.47624 -0.851243
 -2.92879   2.28853 -0.549829
 1.71583  2.50999 -1.94954
-3.80381  1.03677  2.24718
     -2.338 4.61892e-06     1.31058
 -5.03551 0.0160048  0.482166
-4.36568  1.73819 0.933488
0.386076  5.50191 0.555517
  4.17328   1.48446 -0.540866
0.0361821   2.84218   1.66601
    -1.0097 3.30283e-06    0.943251
 2.06082  2.46147 -2.01034
-4.40001  7.98161 0.343667
-1.00888  2.10956 -1.15249
-1.29195  1.44504 -1.40461
 4.22446  1.29512 0.471669
-4.89422  7.17498 0.137012
   -3.45646 8.66245e-06     1.59842
 -4.58533   6.17643 -0.555847
 1.68288  3.81799 0.565069
  4.18908   2.82137 -0.581236
 0.37115  4.58864 -1.10309
4.28847 1.02804 0.25961
-1.64771  1.40645  -2.1319
