-0.769877  0.520568 0.0048647
 0.646949 -0.370566  0.491416
  0.270613 -0.0975591   0.632456
 0.405979 -0.912508   0.39229
  -0.1863 -0.245035 -0.738724
-0.662604  -1.01019 -0.270108
0.0815325 0.0255304 -0.650196
-0.602131  -1.38784 -0.636507
-0.678033  0.418159  0.247923
-0.533779 -0.602553 -0.384008
-0.258803  -1.30017 -0.629395
-0.716481   1.15758  0.215174
 0.153668  0.905797 -0.267067
-0.855462 -0.594409 -0.243116
 0.629915  -1.23204 0.0361868
 0.526282  0.191875 -0.356145
 0.573216 -0.408659 -0.195072
-0.686902  0.787844  0.367359
-0.683572 -0.783986  -0.08163
-0.209784 -0.928149 -0.804078
  0.558557   -1.18156 -0.0463014
-0.712459 -0.482121  0.127005
-0.726036  0.183584 -0.300891
 0.215777  0.799687 -0.390398
-0.651989 -0.977958 -0.457436
-0.612562   1.49241  0.328654
-0.213335  0.471801  0.571859
 0.530404 0.0147213 -0.171421
 0.622153  -1.22035 0.0723295
 -0.62118 -0.827455 -0.432281
-0.568196  0.175907 -0.421159
-0.400491 -0.516382 -0.543018
-0.636427   1.18825  0.377837
 0.543038 0.0582307 -0.041901
 0.127162 0.0354838 -0.642528
-0.784334 -0.683136 -0.243791
 -0.24521  -1.37621 -0.351601
-0.486713   1.13579  0.507185
 0.347312  0.343868 -0.604048
0.0832571  0.654076 -0.600631
  0.677027 0.00771518   0.194586
 0.219004  0.103866 -0.674523
-0.681024   1.16944  0.319274
  0.565208  -0.876033 -0.0623559
0.0239212  0.860054 -0.483757
-0.0532027  -0.456009  -0.736999
-0.298054  0.714322  0.632014
-0.0994533  -0.718386   0.418829
0.342034  0.81839 0.100596
-0.194614 -0.413015 -0.708681
-0.429051  0.417558  0.480329
 -0.2626 -1.32327 0.247397
  0.550565 -0.0189688  -0.106769
0.495686 0.281681 0.415485
-0.185927  -1.10281  0.393927
-0.386396  0.157746 -0.451882
-0.740211  0.743762 -0.133408
 0.496384 -0.903796 -0.215279
 0.233129 -0.532916 -0.663365
 0.237868 0.0791665 -0.649996
0.0659226  0.763606  0.611178
-0.327105  -1.42576  0.106645
0.0709617  0.385912 -0.694706
-0.357819  -1.42321 -0.486693
0.361381 -1.21875 0.588382
-0.695991   1.19341  0.283033
 0.409249 -0.834102  0.352408
-0.207534   -1.3188 -0.629821
-0.700921  0.158709  0.249067
-0.0972476  -0.605659   0.507673
-0.628728  0.432101 -0.289776
-0.601525   1.42761  0.420737
-0.832681  -0.31226  0.170191
 0.197507  0.737292 -0.310801
-0.131689   1.07359  -0.25816
  0.60066   0.20131 0.0547444
    0.550395     0.213951 -0.000372552
0.0329566  0.516858 -0.604347
 0.643505  -1.27506 -0.239904
 -0.46825 -0.919384 -0.763703
 0.384964  -1.12039 -0.220427
-0.335304 -0.427175 -0.608437
-0.360235  0.815714  0.610616
-0.0119594    0.81732   0.620562
0.577448 0.211385 0.393525
-0.0934342    1.24155   0.457979
-0.478228    1.5349  0.516636
-0.532348   1.04094  -0.19591
-0.635037  0.492014  0.339005
 0.25471 0.705534   0.3577
0.0479346 0.0530568  0.691941
-0.299662    1.1483 -0.221623
-0.843236 -0.519821 0.0362872
-0.685067 -0.718482 -0.303573
-0.0730802  -0.334488  -0.740877
-0.157242  -1.37325 -0.813368
0.117698  -1.4305 0.650838
-0.916147 -0.445031 -0.303277
  -0.548002 -0.00584439    0.532344
-0.676504  0.709247 -0.232556
-0.292042 -0.445973 -0.652491
-0.0744122  -0.610574  -0.725091
  0.59502 -0.565178 -0.193811
-0.630426 -0.955406 -0.174932
-0.846984     -1.43  -0.26639
 0.374024 -0.283535  0.614187
-0.00891748     -1.4305  -0.0704154
 0.507912 -0.660201  0.305156
-0.702976  0.875015  0.331591
-0.731086  0.892975  0.267161
 -0.706773  -0.737942 -0.0376021
  0.048668 -0.0295658  -0.698542
-0.667655 -0.461328  0.169363
-0.806446 -0.331907  -0.40336
 -0.223274   -1.39965 -0.0772318
-0.0429545  -0.951077   0.450586
-0.232458  -1.27751  0.397544
0.193557 0.915283 0.529143
0.350489 0.412799 0.372621
0.0202422   -1.4305  0.365651
0.300697 0.442698 0.431951
-0.364587  0.828575 -0.534536
 0.18854 0.718866 0.415082
 -0.291957   -1.37781 -0.0429583
-0.0186745  -0.122939   0.648084
  -0.79058 -0.0592677   0.174478
-0.121945 -0.933443  0.368062
  0.55904  0.298182 -0.341167
-0.174985  0.259972  0.549117
-0.613185  0.494708 -0.180937
 0.660514 -0.530442 0.0262303
-0.191363   1.03676 -0.444067
 -0.177122    1.24971 -0.0821591
-0.0137677  -0.296053       0.67
-0.681754   -1.4301 -0.155726
-0.406379 -0.651283 -0.604592
 -0.11449 0.0766119 -0.676908
0.638579 0.158275 0.289873
-0.127807 -0.901274 -0.741706
-0.260964  -1.32744  0.324345
 -0.25684  -1.37951 -0.163372
0.0219831  -1.10632 -0.503073
  0.364347 -0.0319356  -0.533891
-0.261827  0.270164   0.51458
-0.442237  -1.31265 -0.253275
-0.875826  -1.37445 -0.303908
 0.364895 -0.234436 -0.629409
-0.739299  0.962464  0.223476
-0.721551  -1.21023 -0.137178
-0.671357   1.28245  0.199598
-0.764753  -0.64883 -0.293291
 0.617864 -0.458687  0.458011
 -0.49583  -1.39506 -0.256715
 0.552337 -0.980083  0.101658
  0.28262  0.741996 -0.228391
  0.516275 -0.0891213   0.571814
 0.248509  0.160387 -0.697232
-0.227182  0.205581  0.627981
-0.361766  -1.41784 -0.909052
-0.483815 -0.576409 -0.402641
-0.0947849   -1.43048   0.326484
-0.101815  0.726545 -0.488913
-0.815307  -1.42135 -0.132904
-0.787403  -1.24451  -0.21639
0.0384902  -1.22971 -0.237067
 0.165846  0.912581 -0.426742
-0.513878  0.127453  0.551345
-0.598823 -0.562219  0.103445
-0.0872923  -0.179455  -0.753941
0.302934 0.257623 0.480265
 0.539166 -0.177286 0.0828265
 0.432651  0.475536 -0.324251
-0.963449 -0.032261 -0.148294
-0.122449 -0.513314  0.565532
-0.587882   0.29684  0.337896
-0.710204  -1.30181 -0.417094
 -0.617434 -0.0791871  -0.413331
 0.528522 -0.729811 -0.283646
-0.371592  -1.42111 -0.336094
 -0.782282  -0.552667 0.00977128
 -1.02423 -0.283377 -0.183014
 -0.933114 -0.0266424  -0.252082
 -0.63383  -1.10595 -0.102881
-0.0748213  -0.722204   0.455806
-0.251573  -1.37831 -0.662177
-0.236192  0.835355 -0.495252
  0.563782  -0.977327 -0.0402897
 0.485813 -0.964206  0.285772
  0.499411 -0.0491653  -0.192149
 -0.89681 -0.140239 -0.366053
-0.282142  0.106858 -0.605497
 -0.376183   -1.34427 -0.0259336
-0.298102  0.226697 -0.698041
0.0915085  0.998291  0.463865
 -0.738288   0.875928 -0.0834265
0.382043 0.587126  0.16369
0.039328 -1.41706 0.680748
 0.423854 -0.233138  0.630098
 0.567948 -0.138482  0.598556
-0.155062  -1.15799  0.480132
0.206204  -1.4305 0.559707
 0.292781 -0.522298  0.466218
 0.100557  -1.41746 -0.254835
-0.124654  -1.39341 -0.451397
-0.270861 -0.935751  0.281284
-0.759174  0.436199  0.045062
0.220775 0.783664  0.59496
 -0.424694   -1.42019 -0.0198564
0.523701 -0.90248 0.225455
 -0.857726   0.606354 -0.0562141
  0.17556 -0.182629  0.649407
-0.780884 -0.233359  0.233761
 0.427239 -0.893118 -0.348524
-0.560349 -0.736028 -0.442515
-0.675539 0.0500662  0.363865
 -0.15803   -1.4305 0.0649567
  -0.64141  -0.841789 -0.0395635
 -0.34893 -0.376303 -0.578932
-0.595175  0.866683 -0.289395
-0.459469  -1.30114 -0.570753
-0.0635762   -1.43047   0.261251
0.0283345  0.807196 -0.496561
-0.519554  -1.32236  -0.97115
-0.677242  0.660547  0.373105
 0.14361 0.996197 0.389678
-0.31573 0.579199 -0.62528
-0.203932   1.18199  0.579918
0.333795 -1.31242 0.656368
 0.303597  0.639407 -0.489482
-0.526253 -0.680186  0.247526
-0.338097  -1.43035 -0.832221
 0.403445  0.525221 -0.343536
-0.202172  0.285745 -0.750306
-0.642141   1.35306  0.368371
 -0.202836   -1.43049 -0.0640907
-0.505801 -0.348781 -0.320133
-0.428976 -0.688597 -0.635145
  0.24843  0.970681 -0.150455
 0.171728   1.12493 0.0585911
  0.390347   0.679887 -0.0897267
0.473732  -1.4305 -0.11878
0.461102 -1.34017 0.594697
  -0.17418 -0.0185374    0.68793
-0.312848  -1.42812 -0.261427
-0.586457 -0.232533 -0.298317
-0.0118369   0.723109  -0.499251
0.303351 -0.34801 0.579172
-0.650791 -0.881301 -0.309013
-0.444128   1.51612  0.243791
-0.21472 -1.43045 0.288505
 0.481278  0.615044 -0.166996
0.415942 -1.19621 0.546423
0.490378 0.391338 0.228711
-0.603684   1.26959 0.0954588
 0.258584 -0.167795 -0.685523
  0.58619 -0.629599 0.0317965
 0.490589 0.0899107 -0.189345
  0.513422   0.273381 0.00348842
-0.410602  -1.39662  -0.11503
 0.553568 -0.819532  0.143152
-0.471989 -0.629131 -0.562624
 0.503626    0.5139 0.0389305
-0.392414   1.41551  0.111314
-0.478114  0.952146 -0.347029
 0.195514 -0.514121 -0.691179
-0.547217  -1.36443 -0.527859
0.248613 0.173664 0.587428
-0.0537314    1.29049   0.262594
 -0.18067  -1.42658 -0.614685
 -0.76464  -1.43042 -0.514314
 0.276226 0.0807952  0.625425
 0.510378  -0.20453 -0.441787
-0.172676  -1.43046  0.206662
-0.409214 -0.874824 -0.721299
 0.352971 -0.437582 -0.649331
 0.516842 -0.507404  0.456047
 0.515708  -1.21461 -0.137999
-0.368655  -1.10434 0.0678602
0.0850481   -1.4305 -0.259255
-0.429727 -0.511328 -0.475137
 0.389285  0.442146 -0.484147
0.156743 -1.29916 0.691946
-0.741438  -1.13208 -0.390187
 -0.494122    1.26097 -0.0181424
 0.278566 -0.643989  0.440641
-0.673436   1.31987  0.261747
-0.755448 -0.227104 -0.394622
 -0.672329   0.985071 -0.0996405
  0.547233  -0.692167 -0.0181664
 0.03132  1.12168 0.428979
0.136048 0.280392 0.547321
-0.259495  -1.02865 -0.804524
-0.044054  -1.18441  0.599137
-0.428134  -1.35877  -0.65495
 0.049734  -1.41752 -0.548381
 -0.838033 -0.0823489  -0.372081
-0.584345   1.50517   0.44619
-0.176039  -1.34009 -0.262827
-0.0676294  -0.455303   0.596221
 0.618858 0.0899002  0.462782
 0.253757  -1.32128 -0.254541
 0.714589 -0.366278  0.393713
0.595039 -1.22236 -0.17273
 0.461371  0.300927 -0.521484
0.00259594   0.465358  -0.619205
0.614024 0.267596 0.200167
0.0824951   -1.2697  0.679472
 0.597937 -0.076832  0.134485
 -0.31982  -1.33282 -0.297544
 -0.30656  -1.43025 -0.407955
0.137769 0.418972 0.530599
 0.428845 -0.396816 -0.560639
  0.37634 0.0364889  0.545974
-0.433281  -0.11826 -0.453377
0.00398593   0.122687  -0.719969
 0.398831  0.603924 0.0858157
-0.440438 -0.305751 -0.502679
-0.569555  -1.33121 -0.609313
-0.390009   1.12813  -0.19312
0.187413 0.308542 0.470996
-0.688448  -1.08471 -0.539982
-0.0183993     1.1785 -0.0481685
-0.0570311   -1.43049  -0.625041
0.0752272  -1.35314 -0.454039
 0.684901  -1.39983 -0.132696
-0.284982   1.38233  0.532635
 0.711953 -0.229641  0.500191
 0.64782 -1.43007 0.409777
-0.0775473   -1.27079   0.607053
-0.591052 -0.854677 -0.529308
 0.133732  -0.73278 -0.646644
 0.533004  0.438443 -0.260486
0.499172  -1.4305 0.243387
 0.263096 -0.387845 -0.669406
-0.678062  -1.14081 -0.118163
-0.317601  -1.41466 -0.641113
 -0.414848   -1.41975 -0.0780764
-0.560304 -0.617606  0.175258
-0.410978  -1.29391 -0.979177
0.249445 0.856177 0.404776
 0.336242 -0.610789  0.400919
-0.295976 -0.719837 -0.703231
-0.283278   1.51123  0.334183
-0.407028   1.54485  0.502902
-0.0948435   0.837884  -0.485531
-0.339299  0.346376 -0.690529
 0.686515 -0.542159  0.216172
-0.493163  -1.34637 -0.356752
-0.171163  0.561502  0.600939
-0.723015  -1.33364 -0.750407
  -0.33794   -1.35641 -0.0823604
 0.315634  0.426482 -0.557315
0.0308869   -1.4305 -0.214596
-0.707383   0.39446 -0.233429
-0.395203    0.2098 -0.595644
0.0383453 -0.373583  0.656898
-0.0238179   0.882186  -0.420746
-0.291949  0.690533 -0.519258
 0.237098  -1.40844 -0.286109
-0.0545192   0.927373  -0.373341
-0.487098 -0.509906  0.445475
 0.271755 -0.416406  0.548248
-0.507237  0.700365   0.53893
0.0329483  -1.30647 -0.525527
 0.589141 0.0475063   0.51931
  0.311893    1.05172 -0.0395695
0.490906 -1.16946 0.462204
 0.435598  0.624699 -0.291921
 0.103537  0.990863 -0.213346
-0.699092   -1.3097 -0.308092
-0.160065   -1.4064 -0.295705
 -0.65808  -1.42892 -0.730629
-0.0397261 -0.0157748   0.683039
 0.263463  0.576868 -0.488792
-0.718416  0.619191  0.213509
 0.373109  0.687865 -0.261251
-0.178264 0.0686421  0.693495
 0.412733  0.383436 -0.523805
 0.490262  -1.43048 -0.241866
-0.54683 0.317684 0.398403
 -0.562009 -0.0648513   0.473688
 -0.735255   0.249382 -0.0175795
0.0694039  0.118648  0.654892
-0.33358  -1.1826 0.106882
  -0.711473   -0.603198 -0.00594952
 0.153148   -1.0292 -0.323068
-0.361159  0.492573 -0.594878
-0.467296  0.622199 -0.436027
-0.518769 -0.225873 -0.340675
-0.452911  0.936443 -0.406904
 -0.63239   -1.3589 -0.898431
 -0.898324  -0.100714 0.00974405
-0.0693001    1.21539 -0.0516846
  0.387334   0.771628 -0.0144421
-0.541021  -1.31538 -0.573928
-0.446118 -0.209402 -0.420017
-0.0147603    1.16844   0.434704
0.412787 0.285547 0.450308
-0.39642 -0.40483 -0.51711
 0.338206  -1.43009 -0.198296
 -0.31291 -0.899693 -0.788635
-0.328372   1.34861  0.554813
 0.685054 -0.461438  0.082535
-0.781773  0.761198  0.179536
-0.729143 -0.103787   0.26773
 -0.288498    -1.4305 -0.0130735
-0.132992  -1.33622 -0.249849
-0.627152  -1.43048 0.0390686
-0.41497  1.01923 0.571371
-0.269145  0.409535  0.572003
 -0.10208  0.993527 -0.433754
0.662817  -1.3348 0.251099
-0.698688 -0.167267  0.313773
-0.258303  -1.30944   0.20583
0.151457 0.969503 0.568059
 -0.494324   -1.39781 -0.0891764
0.420457  -1.4305 0.137412
-0.395284   1.17824 -0.158146
0.643955  0.11564 0.095363
-0.0832412    -1.3488  -0.452309
 0.331281 -0.111139 -0.614726
-0.543879   1.11779  0.476421
 0.390698  0.479494 -0.405688
  0.521845   -1.43043 -0.0470809
 -0.683076    -1.2824 0.00402284
 -0.6612 0.952363 0.378936
 0.553569 -0.888045 0.0955128
-0.549004 -0.278083 -0.311991
-0.00977749    0.370293   -0.711017
 0.525103 -0.641054 -0.353046
 -0.255173    1.33812 0.00275084
0.230508  -1.4305 0.563638
0.179091  1.01486 0.266937
-0.429662 -0.250785   0.55815
 0.549573 -0.836626 -0.218135
 0.570058 -0.693806 -0.143742
-0.164876  -1.37987 -0.447217
 0.789629 -0.101077  0.447692
-0.166183 -0.732972 -0.698581
  0.42223  -1.04323 -0.240416
0.0202963 -0.772515 -0.637107
 0.650551 -0.100244  0.172192
-0.439863  -1.43003 -0.649872
-0.747178  0.819084  0.249102
-0.691117  0.314414  0.195691
-0.397016   1.57876  0.369708
  0.513549   0.498959 -0.0226245
-0.595337  -0.20972   0.42188
0.198863  -1.4305 0.118719
-0.614156   -1.4287 -0.779334
0.0628466  0.740295 -0.476345
-0.115441    1.3459  0.155942
-0.195685   -1.4305 0.0127528
0.0312751  0.940031 -0.402864
-0.674706  0.529184  0.293271
0.0355044  0.298658 -0.742655
 0.050606  -1.22416 -0.305831
-0.623673  -0.81905 -0.339159
-0.880046  0.029792 -0.273209
-0.202738  0.761026  0.647343
  0.51736  0.162746 -0.308401
-0.798727  0.442538 -0.130989
-0.425892 -0.108074  0.596337
-0.107506  0.157506  0.691726
  0.494339   0.508106 -0.0897039
0.0646534  -1.28993 -0.385455
 -0.44606  0.218232 -0.406862
-0.0903122   -1.40811  -0.240308
0.0403685  0.206145  0.645066
0.206586 0.899286  0.37963
-0.516647  0.464277 -0.361586
0.505391 -1.09553 0.282222
-0.527233  -1.31304 -0.149867
  0.483341 -0.0173359   -0.24964
-0.970918 -0.224305 -0.323807
-0.252723 -0.439896  0.566141
-0.603896  0.193073  0.386389
-0.116469 -0.239345  0.647749
0.0876495 -0.667572 -0.679642
-0.699785   1.10262 0.0608555
0.0175083   1.21802  0.268328
-0.858956 -0.538627 -0.319455
0.0844517   0.56447  0.577615
0.215904 -1.05413 0.581836
 0.101166 -0.910341 -0.456639
-0.106357   1.00712 -0.324952
0.391313 -1.43049 0.533279
-0.239804  -1.22103   0.19283
 -0.48589  -1.37622 -0.129532
 -0.75942   0.49333 0.0300289
-0.11387  1.00402 0.596824
0.524325  -1.4305 0.547933
  0.42516 -0.590446  0.371571
 -0.611917   -1.40071 -0.0907587
-0.349136   1.05526  0.585607
-0.664614  0.348715 -0.317728
0.534935 -1.23602 -0.27115
-0.560291 -0.253121  0.448011
-0.183082 -0.645388 -0.697478
-0.223933  0.507821 -0.664378
0.182501 0.738859 0.501041
0.588379  -1.4305 0.191266
0.365131 -1.02997 0.481669
 0.445818 -0.309579  0.612195
0.0192552 -0.433655  0.630013
-0.669002  0.910398  0.375564
 -0.863947   0.690198 -0.0613545
-0.746046 0.0674126  0.230601
-0.359978 -0.736179 -0.690781
0.581883 -1.26941 0.413712
 0.540575  0.367888 -0.327127
-0.779632  0.849336 0.0881354
-0.493684 -0.433908  0.456204
-0.224499 -0.126047  0.668044
0.311281 -1.42871 0.689954
0.372594   0.4458 0.305394
-0.0127875  -0.833932  -0.619552
-0.552838 -0.482544  0.395647
-0.384471   1.30913   0.54999
  0.478329 -0.0367076   0.542927
-0.691282 -0.359527 -0.425157
0.246687 0.982858 0.178165
0.485529 0.189989 0.468278
  0.77124 -0.274185  0.305717
 0.471091  0.132398 -0.175589
  0.356451 -0.0546689   0.626049
0.0469583 -0.747431  0.495494
-0.567644 -0.607736  0.272662
 -0.249071    1.30109 -0.0444468
-0.172478   -1.3384 -0.121131
-0.676238  0.201476  0.133456
  -0.71614   0.346185 -0.0512259
 0.303265 0.0434174 -0.560449
-0.731478  -1.12697 -0.299469
-0.295353  -1.22257  0.116741
 0.445285 -0.196657 -0.534678
0.550419 -1.03706 0.238723
-0.403815   -1.3271  0.145485
-0.109118 -0.048066  0.699486
-0.430483 -0.763324 -0.664751
-0.765678  0.676694 0.0857391
0.682583 -1.38221 0.286712
 -0.756467 -0.0207923   0.307273
-0.00105109    -1.02124    -0.61228
-0.0766255    1.13075   -0.17455
-0.339162 -0.341592  0.580437
-0.0480988   -1.30111  -0.658396
 0.312893 -0.483565 -0.638616
 -0.928427  -0.159358 0.00376364
0.0331115  -1.04131 -0.397652
-0.281916 -0.874612  0.317156
-0.660239 -0.852828 -0.197106
  -0.463466    -1.43043 -0.00257839
-0.542502 -0.921434 -0.654332
 0.586129 -0.245349 0.0736898
-0.513049 -0.666688  0.304626
 -0.554207    1.17964 -0.0558071
0.707332  -0.4637  0.31343
0.429571 0.218074 0.489968
-0.809661  0.150307 -0.185353
-0.338484  0.109891 -0.538994
-0.440192 -0.273867 -0.430063
 0.340357 -0.540824  0.415363
 0.354247 -0.311975 -0.643706
0.0430007   -1.4305   0.49744
  0.738179 -0.0490848   0.526431
-0.645219  -1.06166 -0.411748
-0.383861 -0.292212 -0.600436
-0.260705    1.3819 0.0635398
0.496657 0.207368 -0.46313
-0.254492  -1.35895 -0.564563
 -0.961393 -0.0628794  -0.297509
 0.292024  0.468039 -0.507813
0.0342383 -0.951919 -0.477824
  -0.32229    1.31686 -0.0292708
 0.447228 -0.794017  0.337061
-0.0233184   -1.43049  -0.274877
0.157632 0.681063 -0.54017
-0.334802 -0.199145 -0.625735
-0.695673  -1.33373 -0.185861
-0.0578427   -1.43047   0.192652
0.0908121 -0.660725  0.529461
-0.661489  -1.43038 -0.294831
-0.607873   1.25056  0.410304
 0.696147 -0.322792  0.460929
-0.338928  0.178728  0.619316
-0.167622 -0.703394  0.404857
0.273551 0.521554 0.260002
-0.501009  -1.21621  0.102956
-0.522887  0.192155  0.501309
   0.4567  0.160872 -0.486382
 0.226496   0.88809 -0.284591
0.228216 -0.96388 0.523141
0.300251 0.736457 0.227748
-0.701351  0.736103  -0.17564
 0.222062   -1.4305 -0.120437
 0.496133 -0.784847  0.289614
  0.26947  0.679927 -0.471185
-0.134615 -0.616026  0.447049
 0.344433  0.833651 -0.107199
-0.298307  0.609555   0.59267
 0.270443   -1.4305 -0.213854
-0.517272  0.645872  -0.38335
 0.217591   1.07404 0.0917866
-0.138006   1.31036  0.432795
-0.631803  0.265222  0.190026
-0.152556  -1.39596 -0.382778
-0.104048  0.255814  0.593317
  0.49538 -0.621919 -0.429513
-0.174885  0.347901  0.591303
-0.825774 0.0214124 -0.326115
 -0.68398  0.801131 -0.232569
-0.490512  0.135111 -0.438373
-0.247691 0.0586611 -0.551418
-0.740668 0.0914515  0.129325
 0.154671  0.907915 -0.298709
0.0765363  -1.43048 0.0624087
-0.0175096   0.679755   0.582362
-0.553808   1.37094  0.141052
-0.471565   -1.4305 0.0137503
-0.577531  0.657587  0.482108
 0.603732 0.0398656 0.0637268
 0.225883 -0.691625 -0.621688
-0.788559   0.61689 0.0266037
 0.446143 0.0476377 -0.244473
-0.756015  0.171449  -0.26623
-0.622524  -1.35928 -0.237513
-0.137406 0.0218933 -0.660199
-0.804601  -1.23968 -0.409512
-0.482154   1.26884  0.504916
 0.479137 -0.425218 -0.499779
0.0111952  0.135253  0.680779
-0.178622  -1.30143 -0.451263
-0.730753   0.74624  0.301637
-0.313244   1.21721  0.572182
-0.461618  -1.43024 -0.834755
-0.468479 0.0404958  0.584517
-0.0588679    0.69827  -0.539886
  -1.02023  -0.241519 -0.0841128
0.579167 -1.33484  0.45426
 0.158072 -0.686316  0.463356
-0.246057  -1.30101 -0.181478
 -0.271013 0.00697695   0.654176
-0.248161   1.05678  0.603422
-0.389434   1.55309  0.306921
 0.451463 -0.833812 -0.376153
-0.468497  0.290961  0.458371
-0.233094   1.14484 -0.198589
-0.226466  0.330757  0.554783
 0.549903  0.443824 -0.152302
 0.236156 -0.560864  0.455887
0.418144 0.133372  0.49888
-0.455428   0.68176  0.568027
-0.462213   0.88125 -0.421749
-0.367338  -1.33509 -0.475024
 0.213987 -0.254515 -0.720175
-0.46614 -0.81246 0.187687
0.244153 0.616005 0.582164
 -0.56504  -1.36542 -0.303167
 -0.662231 -0.0816374   0.373064
-0.753226  -1.43043 -0.164876
 0.314002 -0.550991 -0.626087
-0.0700388   0.287443  -0.765259
 0.488348  0.544379 -0.196361
-0.470352 0.0366858 -0.438393
 0.580327  0.381416 -0.105875
 0.593051 -0.506912 -0.166637
  0.594921  -0.810411 -0.0229993
 -0.597284   -1.07664 -0.0674783
-0.639886  -1.42455 -0.193641
 0.184533 -0.884196 -0.486754
0.0239542    1.0186  0.524118
-0.566326  -1.30212 -0.116347
-0.356311  -1.09953 -0.771661
0.0764331  -1.43048  0.109311
-0.920346 -0.273641 0.0341549
0.0243103  0.318274  0.534477
 -0.378476 -0.0456834  -0.493129
-0.137792  -1.43048  0.430353
-0.144097  -1.29568  0.551268
 0.280681 -0.841508  0.450325
-0.244082  0.313033 -0.729382
-0.771524  0.699159  0.188225
-0.679845   1.09976  0.333431
  0.4649 -1.43049 0.514492
 0.407814 -0.455847 -0.569501
 -0.72964  -1.41334 -0.251263
-0.588275   -1.3104 -0.198242
0.0508057 -0.250241  -0.76043
-0.667876  -1.32616 -0.226773
-0.352133  -1.34716 -0.123057
-0.673757  0.328008   0.29459
 0.673567 -0.355711 0.0453115
 0.116243 -0.827363 -0.578994
-0.804029 -0.448087  0.122664
 -0.37045 -0.554946 -0.636339
-0.205486  -0.58652 -0.720833
 -0.398227   -1.31255 -0.0714125
0.184608  -1.4305 0.502794
 0.796585 -0.117701  0.385408
-0.168726   1.36696  0.104093
-0.813762 -0.100215  0.171227
-0.556257 -0.333184 -0.359815
-0.0810905    -1.4305 -0.0345852
-0.105715  -1.42981 -0.541793
 0.0292835    -1.4305 -0.0155585
 0.348804 -0.781058  -0.51331
 -0.775474 -0.0478618   -0.38766
-0.442871   1.33124 0.0332124
-0.341878  -1.43047 -0.488147
-0.345255  0.678449  0.615271
 0.681194 0.0388261  0.495291
-0.625575 -0.564426 0.0324377
 0.459974 -0.089319 -0.453573
-0.212768  -1.19221 -0.768176
   -0.70796     1.01863 -0.00692626
-0.644655  -1.29563 -0.868901
0.0894399 -0.780001 -0.644207
-0.629627  0.334802 -0.369508
-0.539425 -0.144684  0.455719
 -0.973158 -0.0628333 -0.0618898
-0.239578  -1.43048  -0.79144
-0.126421   -1.3969   -0.7795
 0.148489 0.0469174  0.691151
-0.711544 -0.297878  0.303076
-0.0962003  -0.259062   -0.75319
-0.254275   -1.3658 -0.115727
0.634243  0.01954 0.107691
-0.659528 -0.891271 -0.250461
 0.26172 0.796271  0.35484
-0.0676773  -0.375414   0.623852
  0.76461 -0.179485  0.324417
 0.288414 -0.480737  0.472605
-0.857603 -0.218071  0.148748
 0.439816 -0.390691  0.565901
0.0906163  -1.40775 -0.322999
 0.309062  -1.43049 -0.154264
 0.322458   1.03275 0.0296519
   0.556352 -0.00521902  0.00446107
-0.554946  0.746693 -0.305831
-0.00117197    -1.28716   -0.587214
 0.744117 -0.293024  0.401539
-0.334523  -1.43007 -0.716262
 0.589629  0.109604 0.0265589
-0.0881843   -1.38354   0.626967
-0.239008   1.47704  0.284564
 0.584907  -1.30403 -0.282087
 0.516532 -0.488969 -0.459977
  0.56653 -0.222462  0.585588
  0.529263  -0.328757 0.00164316
-0.270262  0.243341  0.533766
-0.273209  -1.07854 0.0838632
 0.462242 -0.027487 -0.365529
-0.345311  0.336894  0.545809
-0.243874  -1.22513   0.28735
-0.626271  -1.30089 -0.122107
-0.594989   1.04273 -0.145686
-0.557511 0.0908533 -0.442103
 0.598792 -0.589178 0.0371189
 -0.113061    -1.4305 -0.0558145
0.0525252 -0.962095  0.513715
 -0.53196  -1.43044 -0.369942
-0.107573  -1.43047  0.136366
-0.0404824    -1.4305   0.450252
 -0.441291   -1.30031 -0.0467472
0.0921521  -0.22735   0.68215
   0.244141 -0.00535114    0.626991
 0.055764 -0.516079  0.631369
0.0520519   1.19499  0.195069
 0.469033  -1.28033 -0.304421
-0.699249 -0.662706 -0.342012
   0.567629    -1.05387 0.000971993
  0.197276    1.09885 -0.0500818
0.524971  -1.4305 0.174948
-0.367009  0.283382 -0.671527
-0.148127  0.194555 -0.739759
-0.0303858    1.26187   0.133931
0.594437  -1.4305 0.151342
0.389252 -1.27569 0.615407
 0.377022  0.694981 0.0250975
-0.715426 -0.699493 -0.126254
-0.00378988   -0.862719    0.407758
-0.112518  0.600211 -0.643069
-0.740961   -0.3363  0.235886
  0.541358   -1.10382 -0.0382419
  0.48263   -1.0034 -0.187706
 0.146898   -1.4305 -0.155497
0.111453  -1.4305 0.234505
-0.431288 -0.943386    0.1329
 0.242813  0.825543 -0.278487
-0.0331142   -1.11005   0.567064
-0.695934  0.502429  0.224561
-0.781816  0.191898 -0.142396
-0.43509 0.954005 0.552806
-0.186075  -0.54676  0.476663
-0.0706806   0.451258   0.615348
-0.443084  -1.40709 -0.475812
-0.0665912   -1.03507   0.513104
-0.186179   1.07133  0.597344
-0.299716  0.468479 -0.638226
 0.373122 -0.745842  0.444968
-0.663505 -0.538567 0.0597052
-0.570371  -1.21418  -0.84705
0.389514 0.431099 0.209292
-0.606057  -1.39424  -0.52099
-0.427344  -1.38023 -0.957958
-0.122621  -1.23372 -0.718654
-0.0567688   0.316488   0.553731
-0.739856  -1.17039 -0.529327
-0.856517 0.0605832 -0.107572
 0.579694 -0.193901 -0.224073
 0.560099   -0.1185 0.0172083
 0.246643 -0.871944 -0.503586
-0.398644  -1.43037 -0.633191
-0.839205  -1.36345 -0.528746
-0.45469 0.225668 0.477053
-0.548243   1.34377  0.470558
-0.748115 0.0779963   -0.3433
 -0.258891 -0.0761706   0.657208
-0.299394   0.92589 -0.469275
-0.422225  0.545112 -0.538836
-0.208255  0.885474  0.628881
-0.269007 -0.648724 -0.680182
-0.520981  0.324297 -0.369612
 -0.77611 -0.501171 0.0709882
 0.53174 0.197712 -0.23816
-0.359493  -1.34189 -0.654178
  0.45084  0.106048 -0.436372
  0.61199  -1.36795 -0.253977
-0.659833 -0.343956  0.390489
 0.472017 -0.574096 -0.496768
-0.639768  -1.33463 -0.457437
0.169666 0.439557 -0.61889
-0.709754  0.100742 -0.362748
 -0.966743  -0.319238 -0.0839416
 -0.879911  -0.436619 -0.0177294
-0.486807  0.492263 -0.484541
-0.654383  0.198187  -0.36108
0.0281166  0.456953  0.571409
 -0.56402  0.562432 -0.275229
-0.548076 -0.416456 -0.386649
-0.369992 -0.846445  0.300755
0.338733  -1.4305 0.476964
0.594984 -1.41963 0.505257
-0.609785  -1.40084  -0.57356
0.477288 -0.16197  -0.4756
 0.564491 -0.240356 -0.332967
-0.636891    1.1614 0.0266423
 0.150566 -0.548113   0.57034
-0.904357 -0.321475 -0.369653
 0.704035 -0.215922  0.173726
-0.465424 -0.573907 -0.529197
-0.283869  -1.40537 -0.890319
 -0.892473  -0.439723 -0.0565224
-0.512643 -0.278741  0.498419
 0.584883 -0.784991 -0.090413
 0.538072  0.357909 0.0271101
0.0484413  -1.21533 -0.388101
-0.262116  0.575897 -0.647188
-0.433476  -1.43015 -0.254682
 0.452166 -0.926021  0.346953
-0.808224  -1.43039 -0.430275
-0.124348  0.842612  0.634159
0.338207 0.694509 0.182476
 0.333824 -0.888341  0.451123
-0.345018 0.0250472  0.627196
-0.640575  0.197527  0.302165
-0.828024  -1.42955 -0.492618
-0.683641  -1.26509 -0.779146
-0.549107 -0.695268  0.111089
-0.234632 -0.781806 -0.718584
-0.695577  -1.41779 0.0164147
 -0.84104 -0.132814  0.103284
-0.684902 -0.775175 -0.228448
 0.550581 -0.210529 0.0156642
 0.412635  -1.40393 -0.300796
 0.18583 0.561102 0.597427
-0.300303   1.00571 -0.448826
-0.613028  0.779142 -0.252695
-0.528194 -0.580358  0.374971
-0.245404  -1.38313 -0.237427
0.438126 -1.06406  0.40614
0.443489 0.331561  0.39475
-0.516421  -1.35346 -0.195185
-0.374249  0.411142 -0.642115
0.0817211  -1.13738   0.63099
-0.777551  0.893026 -0.169631
  0.19292  -1.31884 -0.255682
-0.224725  0.633691 -0.589635
-0.221028  -1.07638  0.297132
0.534159 -1.15023 0.383252
0.0516886  -1.25042 -0.478768
-0.496966  -1.41923 -0.438654
-0.596059  0.639613 -0.289443
 -0.544818    -1.0156 -0.0223115
-0.0695242    1.17107  -0.118761
  0.45681  0.561607 0.0590282
-0.632911 -0.662263 -0.380017
-0.723768   1.09654  0.234205
 0.307582  -1.11737 -0.265065
0.703356 -1.40106 0.206193
 -0.651484    1.05707 -0.0704613
-0.501383  0.627383  0.525035
  0.55623 -0.151842 -0.144892
 0.317731 -0.687629 -0.581984
0.0121188  -1.42214 -0.617048
-0.749405  -1.30413 -0.669642
 0.145883  0.252893 -0.750391
-0.0441845   0.256644   0.619237
 0.479401   0.11588 -0.367739
-0.0329987   0.951874   0.587335
0.203499 -1.10991 0.622481
-0.698795  -1.36522 -0.809341
-0.745909  -1.42369 -0.340814
-0.431965   1.40618  0.529699
  -0.283804 -0.00752709   -0.552237
0.457269 0.499572 0.120758
-0.744372  -1.22933 -0.585624
-0.698783   1.17029   0.13153
  0.75875 -0.368989  0.219077
-0.644793  0.241385  0.169868
0.369196 0.726389 0.112466
  0.54254 -0.742242 0.0944299
-0.362707   -1.0162 -0.794762
 0.434067 -0.952905 -0.225112
-0.219771  -1.04466 0.0693366
-0.689723   -0.2808 -0.390105
-0.546049  -1.34009 -0.623964
 -0.634651  -0.905983 -0.0757779
  0.540127   0.140782 -0.0212265
0.0421752  -1.21704  0.652527
-0.366267   1.47765  0.183637
  0.509628 -0.0849212  -0.341104
0.0913974  0.922511 -0.461853
-0.121617   -1.3166 -0.452778
0.434166 0.420545 0.140578
 0.291304 -0.962399  0.494691
-0.452404 -0.614424   0.39733
 -0.13888  -1.37795 -0.565491
 0.638131 -0.133742  0.598253
0.240987  0.49637 0.333869
 0.637271  -1.42171 -0.173689
0.270266 0.387995 0.461218
-0.284851   1.42066    0.1115
-0.00830636     -1.4305   -0.502468
0.182873 0.797707 0.529061
-0.445483  -1.02832 0.0679555
 -0.860394   0.752783 -0.0941231
-0.281408  0.541533  0.587137
-0.430608  0.336788   0.48251
-0.460733 -0.755963   0.28613
 -0.70304  -1.23786 -0.670851
-0.738789   1.01961 0.0788559
 0.493388  -1.06946 -0.152837
0.258346 0.581527 0.530294
-0.142384 -0.127198 -0.729893
 0.315342  0.307254 -0.651875
 -0.601526   -1.34614 -0.0887902
-0.592587  -1.30038 -0.363159
  0.3124  -1.0557 0.523027
  0.304341 -0.0482095  -0.599041
 0.056821  0.103419 -0.709966
-0.674305 -0.437953  0.268424
-0.178307    1.3548  0.435587
-0.126565  -1.32269 -0.180242
-0.500858 -0.462995 -0.382622
-0.410859   1.06275 -0.312367
  -0.14026 -0.0481903  -0.694633
 0.588295 -0.450825  -0.22372
-0.556638  0.685488 -0.304197
-0.896123 -0.242561 0.0993107
 -0.37844 -0.769246  0.353237
 0.201769  0.285232 -0.720986
 0.611037 -0.636646    0.2112
 0.102746  0.955723 -0.374237
 0.355924 -0.622963 -0.614876
 0.323497 0.0269405  0.605131
-0.519337  -1.36007  0.124261
  0.55867 -0.678871  0.033739
 0.701433 -0.134931  0.579674
 0.588238  0.316894 -0.169257
  0.684538   -1.42373 -0.0362824
  0.559217  -0.666591 -0.0719143
 0.116917  0.606158 -0.610909
 0.684154 -0.228197  0.141419
-0.443158  0.160133  0.584951
-0.43841  1.18211 0.528069
 0.573062 -0.797482  0.103352
 -0.60471 -0.715781 -0.397877
-0.564006 -0.886524 0.0385066
0.327219  0.12103  0.53124
-0.0547711    1.05375   0.562887
0.441708 0.403538 0.284193
-0.538767  0.424335  0.392277
 -0.51732  -1.43041 -0.724563
0.0518684   1.17123 0.0230995
  0.756963 -0.0142695    0.31329
-0.0934737    1.29072  0.0558764
-0.565062   1.37672  0.459945
0.240007 0.237801 0.534827
 0.489645  0.476252 -0.294038
 0.020498 -0.901623 -0.570095
-0.166347  0.670788  -0.52975
 0.149829  0.482927 -0.556802
-0.382726  -1.36075 -0.556404
 0.0642158    1.15651 -0.0491797
-0.181748  -1.42518   -0.5513
0.0374297 -0.677538  0.532775
 0.454242  -1.31443 -0.310556
 0.207987   1.06897 -0.159686
-0.493204   0.89049  0.542771
-0.378898  0.381392  0.524295
-0.447824  0.579206  0.537634
 0.180023 0.0898429  0.658546
  -0.74459  -0.673788 -0.0944873
 0.281773  0.826545 -0.217179
 0.166471  0.620276 -0.564294
  0.358103   0.909517 -0.0242561
-0.807455  0.608203  -0.15002
 -0.57127 -0.667356 -0.412579
-0.506643  0.401561 -0.437562
-0.165563  -1.28062  0.520104
0.043128 0.821151 0.593633
0.242291 0.781401 0.299911
-0.649676 -0.977625 -0.358907
-0.921951 -0.230706 -0.372709
0.142918  -1.4305  0.61036
 0.204363   0.69771 -0.487901
 0.638032 -0.274834  0.524284
0.0129054  -1.03454   0.56049
-0.71507 0.154782 0.169183
 0.711997 -0.393409 0.0900583
-0.534801 -0.104106  0.501213
-0.148346   -1.4302 -0.744122
-0.614224  0.566862  0.378186
-0.888647 -0.195844 0.0359631
 -0.61901 -0.355087 -0.408391
-0.730257  0.269845  -0.10172
 -0.789163   0.152064 -0.0606994
 -0.753858 -0.0142364  0.0425457
0.324802  -1.4305 0.188412
-0.741777  0.386108 0.0509015
-0.597195 -0.583108   0.29567
0.646591  -1.4304 0.356686
-0.370881  -1.39655 -0.384146
 0.713091  -1.39436 0.0257545
-0.199758  -1.39765   -0.2186
 -0.358133   -1.43046 -0.0181006
-0.348607 -0.813669 -0.722931
-0.587549  -1.41017 -0.877678
0.482624 -1.39698 0.615542
-0.551985  -1.01813 -0.710767
-0.430392   -1.4305 -0.836686
0.0718818 -0.835345  0.430248
-0.0166884  -0.943094  -0.654488
-0.114105  0.490169 -0.652293
 0.150768  -1.21334 -0.241376
-0.521119 -0.961371 0.0534207
0.0390466  -1.14496 -0.288186
-0.156083  0.976857 -0.432157
-0.379959  -1.43032 -0.342778
-0.225942  -1.00699  0.170358
-0.402528  -1.42647 -0.701738
-0.160007 -0.388551  0.591644
-0.285419  0.899697  0.619847
 -0.59975   -1.0604 -0.655121
 0.100248 -0.486553 -0.715126
-0.266999    1.0785 -0.334249
-0.336299 -0.250066 -0.655227
-0.619997   1.31389  0.156044
 0.674901 -0.538045  0.298199
 0.16898 0.154163 0.636056
-0.322303  0.132046  0.635699
-0.770962  -1.37953  -0.68875
-0.739174  0.430686 -0.208077
0.327842 0.499901 0.297701
 -0.0977602     1.26642 -0.00259363
0.578573 -1.37631  0.52301
-0.0552192  -0.878878   0.388362
0.474475 -1.02614 0.338555
 0.541787 -0.890265 -0.137343
-0.328075  0.177996 -0.644702
 0.257556  0.420702 -0.618539
 0.289118  -0.92561 -0.356754
-0.582439 0.0658465  0.498667
0.174525  -1.4305 0.184329
-0.216822   1.38813  0.453381
-0.696361  -1.40765 -0.354249
 0.129226 -0.756175  0.457785
-0.973025 -0.358764 -0.145998
-0.234023    1.2694  0.563151
  0.169957 -0.0350666  -0.668366
-0.633918  0.655834   0.42504
  0.44034 -0.536382  0.440403
 -0.80385  -1.32787 -0.578973
  0.38586  0.837807 0.0405883
0.594657 -0.52204  0.41803
-0.407563   1.24084  0.540745
 0.192115  0.750643 -0.418409
 0.403693  0.581624 -0.392647
 0.264545   -1.4305 0.0059009
-0.623622 0.0384297  0.433946
-0.229856  -1.13969  0.250849
-0.252879   1.35397  0.532101
-0.12325 0.520606 0.587039
-0.658874   -1.4195 -0.508478
  0.284554   0.997631 -0.0699034
  0.569231   0.419972 -0.0260535
-0.72564 0.544622  0.15454
 0.571921 -0.162564  0.144703
-0.149153   -1.4305 -0.689974
0.666719 0.113349 0.172878
0.319406 -1.04279 -0.29108
-0.223014  -1.24071 -0.786112
-0.049329 -0.746713  0.465502
-0.401025 -0.963709  0.131169
 0.53684 -1.00159 -0.11411
-0.567495   -1.3065 -0.327331
-0.588387 -0.910704 -0.604671
0.265778 0.886981 0.251882
 0.549439 -0.166639 -0.327918
0.664686 -1.21809 -0.18631
0.310785  -1.4305 0.446102
 0.178641 -0.587502 -0.702678
0.585016 -1.43051 0.340219
-0.110562  -1.33963 -0.359258
-0.501256  0.445214 -0.513382
 0.406294 -0.720351  0.413153
 -0.70541  -0.66386 -0.028404
  0.417694    0.82425 -0.0560332
0.469012  -1.4305 0.182512
 -0.766981   0.868022 -0.0127274
0.0847158 -0.446637  0.624488
 -0.523869 -0.0209827  -0.435183
-0.808636 -0.382787  0.160124
-0.441447  -1.32525 -0.368028
-0.381575  0.615621  0.578011
-0.599985 -0.710139 0.0265688
-0.402022  -1.43031 0.0836179
 -0.478987 -0.0331294   0.575924
-0.695888  -1.11217 -0.212633
 0.627655  -1.43027 0.0111668
-0.186242  -0.32907   0.62584
 0.481047   -0.2967 -0.506027
 0.317621  0.716445 -0.267418
-0.499444  0.544027 -0.410838
 0.345927 -0.383232  -0.63416
 0.447069  0.616805 0.0556232
-0.0298425    1.10004   0.522335
 0.681115 -0.012141  0.560496
 0.156134 -0.632398 -0.676083
-0.460897 -0.837203 -0.675084
 0.541735 -0.391826  -0.38221
-0.543831 -0.733975 -0.500685
 -0.12538  0.279957 -0.759678
 -0.791676   0.453065 -0.0526845
-0.345536  -1.30106 -0.335806
0.0290492  -0.91682  0.447336
 -0.48103  0.320207 -0.495215
-0.500927 -0.721835  0.153905
-0.640502   1.40043  0.268403
 0.549207 -0.124229 -0.234371
0.639995 -1.34322 0.338285
-0.360052   1.55427  0.443869
-0.230553  -1.28123 -0.811317
-0.758616  0.371138 -0.116951
-0.768529  0.672519 -0.128038
-0.244445  0.972243  0.610219
 0.306817 -0.899453  -0.42016
0.0185536  -1.43043   0.64027
-0.175703  0.440055 -0.681361
-0.169768 -0.829367  0.386069
-0.183341  0.130443  0.689332
-0.465817 -0.515391 -0.398104
 -0.24728  -1.15304 0.0669332
-0.700556    0.4456  0.184922
-0.406864  0.455517 -0.598612
 -0.604359  -0.934382 -0.0233442
 -0.737158   -1.28528 -0.0606862
 0.554485  0.241695 -0.164041
0.523384  -1.2817  0.50696
-0.811286  -1.42498 -0.575234
-0.233343 -0.188161  0.657342
 0.21077 -0.64201 0.437373
-0.133606  -1.41091 -0.158395
0.597185 -1.15451 0.117689
-0.47635   0.5193 0.499448
 0.362794 -0.459305  0.466957
-0.236302  -1.30994 -0.122211
-0.256435 -0.235648  0.641988
-0.0362432    -1.4305  -0.464724
-0.490669  -1.19994 -0.957401
  0.34719 -0.921064 -0.321408
-0.487885  -1.17894  -0.80263
 0.128736  0.413121 -0.669329
-0.264312  -1.33408  0.123043
 0.620663 -0.555895  0.349803
-0.432736  -1.11122 0.0624099
 0.111984  0.137906 -0.724001
-0.0460821     1.2277   0.398474
-0.556656  -1.22585 -0.942526
-0.666743 -0.202259 -0.353456
-0.190418  -1.23736  0.467724
-0.905987 -0.518514 -0.254716
 0.164075  0.972511 -0.246636
-0.695928  0.110127  0.316191
-0.0743193    -1.4305  0.0270965
  0.10186   1.11796 -0.101575
-0.344283   1.10923 -0.303154
-0.0748601   -1.21711  -0.670895
-0.714032  0.163433  0.073579
 -0.701183   0.949418 -0.0819091
  0.69035 0.0509796  0.328005
0.520411 -1.11307 0.359897
-0.499004 -0.953961 -0.761557
-0.635853  -1.31235 -0.552959
-0.392207  0.687201 -0.485847
-0.457011  0.740605  -0.43383
 0.109921 -0.874547  0.469051
-0.602607   -1.3733 0.0898261
-0.015782 -0.127624 -0.747734
 0.179233   1.02968 -0.209184
-0.519073 -0.753329 -0.582399
-0.175719  -1.30018 -0.357451
0.369657   0.4637  0.15834
-0.796173  0.774153 0.0271348
-0.79254 -1.27103 -0.50362
-0.440358  -1.20767  0.114565
 0.307324  0.123194 -0.637167
-0.0706521      -1.37  -0.381441
-0.952837 -0.351312 -0.305706
  0.385037   0.749407 -0.0872703
 0.353409  0.734664 -0.157146
   0.105157 -0.00782867    0.664251
  0.725919 -0.0527247    0.24006
 0.424343 -0.027384  -0.44824
-0.600569  0.368641  0.353384
0.396019 -1.43049 0.399913
-0.650448  -1.00639 -0.230268
 -0.336872 -0.0651496  -0.513207
-0.718207 -0.504043 -0.431447
0.0730108  0.378271   0.52318
-0.634572 -0.544212  0.244824
0.300323 0.889152 0.192407
 -0.705965 -0.0906432  -0.411466
0.0568399 -0.861168 -0.513511
-0.837373 -0.595902 -0.095584
0.114519  1.10061  0.30144
  0.18727 -0.457382  0.593604
 0.13535 0.949657  0.50526
-0.260109  0.809133 -0.508408
-0.598391 0.0204936 -0.438454
 0.0660637 -0.0689395    0.66275
-0.179649 -0.999149 -0.792907
0.677097 -0.44946  0.40577
 -0.830088   0.849137 -0.0406086
 0.746189 -0.399394  0.326459
-0.174711  0.411737  0.616629
-0.690556  0.887808 -0.141649
0.604977  -1.4305 0.265408
-0.141259  -1.40588 -0.238942
-0.370879  -1.39618 -0.228483
 -0.322128 -0.0745208   0.633296
-0.515693  0.961516 -0.270756
 0.536313 -0.441527  0.530138
 0.0786166 -0.0946569   0.663149
 -0.858042  -0.526639 -0.0637046
-0.369184  -1.33884 -0.400073
 -0.820163 -0.0815828  0.0166555
0.694792 -1.32596 0.111588
 -0.47494  0.362492 -0.554639
0.613492 0.203724  0.32493
 0.184631  -1.10225 -0.284037
-0.388461  0.972981 -0.481952
-0.748173 0.0163642  0.107593
-0.497384  -1.34089 -0.683922
 0.573108  -0.34332 -0.324883
-0.251529 -0.347983   0.61025
-0.712888  -1.36332 -0.494949
-0.286107 -0.284398 -0.680956
  0.350326    -1.4305 -0.0112055
-0.822422  -1.31559 -0.210475
-0.585598   1.02069  0.469659
 -1.01981 -0.236996 -0.255279
 0.758956 -0.135992  0.525668
 0.398916  0.107265 -0.525026
-0.850121  -1.33624  -0.44886
-0.783272  -0.41708 -0.412676
  0.26592  -1.34871 -0.273684
   0.23722 -0.0742048  -0.659635
 0.436717 0.0542435  0.520377
-0.0307902   -1.05822  -0.642003
 0.119568 -0.451832 -0.710397
 0.735464 -0.223114  0.495802
 0.695057  -1.27805 0.0073129
0.101663  -1.4305  0.46051
 0.507479 -0.225687  0.622377
-0.381414  -0.35139  0.543035
0.104276 -1.02106 0.556344
-0.375066  0.595263 -0.578867
-0.170187  -1.33837 -0.186041
-0.123227 -0.999724 -0.739827
-0.735277   1.06081  0.116947
0.718608 0.042073  0.42385
-0.199265  -1.43028 -0.166203
-0.173191 -0.498034  0.531558
0.0135978 -0.556145  -0.70417
-0.488772  -1.32169 -0.558717
-0.827853  0.892186 -0.110979
-0.143016  0.357895  -0.73651
-0.385092  -0.18459 -0.544899
-0.503962   1.33614  0.497016
  0.633298   -1.22933 -0.0803902
-0.487236   1.45904  0.191701
0.721879  -0.4526 0.219763
-0.194983   1.43063  0.226126
 0.041396  -1.11828 -0.418862
-0.240232  -0.62207  0.388049
-0.516274  -1.13098 0.0448209
 -0.30829  -1.39929 -0.208757
-0.714958  0.433654  0.124437
-0.297673  -1.37285   0.12576
0.0782122  -1.07647  0.606512
-0.430557    1.3829 0.0873655
-0.827728 -0.182095 -0.390747
 0.211454  -0.32842 -0.725416
-0.331959   1.04249 -0.422233
-0.190087  0.841355 -0.486924
 0.684438 -0.550334  0.144776
-0.235509  -1.43047 -0.670955
 -0.961508   -0.27173 -0.0239288
  0.59428 -0.538755 -0.284646
-0.670072   1.22565  0.138626
0.567194  0.33405 0.149207
 0.413153   -1.4305 0.0859824
 -0.848856   0.557663 -0.0723023
0.123277 -1.34016 -0.25254
-0.736693 -0.611562 -0.346131
 0.172229 -0.995162  0.550966
0.0335234  -1.08797  -0.27499
 0.654323 0.0920558  0.397625
 0.443915 -0.771573  -0.42119
-0.792419  -1.29671 -0.155447
 0.562612 -0.665978 -0.210921
-0.218774   -1.1957  0.106487
0.493024  -1.2382 0.499572
   -0.42586     1.30346 -0.00965678
-0.872741  -1.41445 -0.390875
 -0.386434     1.2489 -0.0944062
-0.160234   1.20452  0.559547
-0.633419   1.06763  0.400174
-0.0403321   0.748927  -0.473464
0.580367 -1.19432 0.331327
 0.513187    0.3219 0.0629431
0.018367 0.407291 0.578042
0.396753 0.635909 -0.37882
-0.308818 -0.615831 -0.660245
 0.243996 -0.720726  0.478215
-0.259073   1.16793   0.58615
 0.404904  0.313714 -0.572704
-0.413106 -0.245782 -0.506427
-0.701764   0.56641 -0.148598
 0.443606 -0.676513 -0.480866
0.756974 -0.30951 0.222014
-0.413283  -1.40428 -0.554529
 0.357428  0.954902 0.0653822
-0.158608   1.26395  0.520346
0.0661059 -0.576168  0.576264
-0.347734  0.221937  0.537761
0.0185604  -1.01046 -0.550777
-0.301531  -1.39824 -0.201855
 0.165574 -0.140848  0.653578
-0.298649  -1.38719 -0.592614
 0.671438 0.0946839  0.259264
-0.652062  -1.05706 -0.477205
-0.880221 -0.398518 -0.370222
-0.366981 -0.132308 -0.508283
0.154702  1.06115 0.229672
-0.187836    0.3615 -0.723488
-0.674617   0.27834    0.0441
 0.486407 -0.885161  0.249995
 -1.00985 -0.067397 -0.146218
 -0.71659 -0.171798  0.275055
 0.277796 -0.630476 -0.658659
-0.166685    1.1892 -0.134538
-0.904754 -0.511701 -0.170582
-0.0844237   0.403104  -0.720345
-0.260811  0.785418 -0.518039
-0.480716    1.6085  0.439715
0.052135 0.658919 0.584022
0.0358598   -1.4305 -0.424872
-0.888691 -0.371172  0.101948
 0.101966  -1.14178 -0.245295
-0.0878095    1.30361   0.342106
 -0.664908 -0.0409764   0.395953
-0.254336 -0.561506  0.433432
-0.492692  -1.36849 -0.600209
-0.287459   1.47878  0.447209
 -0.552844   -1.42908 -0.0514301
0.556311 0.428915 -0.17988
0.178618  1.08104 0.168413
-0.568027   0.50235  0.421125
-0.571218 -0.485271 -0.428769
0.261142  -1.4305 0.393137
-0.992369 -0.306599 -0.244745
 0.215027 -0.353803  0.625754
-0.679851 -0.749893 -0.267987
-0.0189633   0.627762  -0.642188
-0.118022   1.15796  0.556126
-0.0534588   0.145716   0.692949
 0.532778 -0.294279  0.610626
 0.714682   -1.3602 -0.105239
 -0.70647  -1.43048 -0.562971
0.521675 0.442207 0.077032
0.641932 -1.26053 0.160525
 -0.25934 0.0951602   0.66526
-0.537798  0.406472 -0.356631
-0.746907  -1.18516 -0.231697
-0.0808249  -0.701267  -0.685814
  0.609275   -1.43049 -0.0932882
-0.161598  -0.55904 -0.714223
 0.340641  0.946036 0.0902346
0.580798 0.323856 0.245146
0.230589 0.776046 -0.30223
-0.189095 0.0715328  -0.61316
0.0637751   -1.3331 -0.275789
-0.320494  -1.32627 -0.432092
-0.0708678    1.31171   0.204077
 0.394773 -0.518789  -0.63114
-0.583773  0.135353  0.478147
-0.387718 -0.711455  0.377128
-0.485966     1.369 0.0970565
-0.324668  -1.28302  0.133925
-0.549915  -1.31323  0.116073
0.568493 0.279154 0.345344
-0.430791  -1.30336 -0.121888
-0.665442 -0.452505 -0.425017
0.244668 -1.26515 0.669361
-0.255696  0.663693 -0.512993
  0.55398 -0.335228  0.566828
0.0645452  0.917282  0.550815
 0.302423 -0.266568  0.623635
 0.590919 -0.257341 -0.224371
-0.342259 -0.145146  0.630757
-0.659646  0.618991 -0.159526
-0.334522     -1.43 -0.112666
-0.193552   1.06482 -0.336156
-0.0916776   -1.07432  -0.691238
 0.301261  0.508312 -0.427661
 0.206405 -0.852421  0.477549
 -0.66073   0.28901 -0.250522
 0.130761  -1.15122 -0.251941
-0.379359 0.0782512  -0.47467
0.0309793  0.925723 -0.315652
-0.491463   1.17784 -0.113186
-0.742641  0.592047  0.103746
 0.150895  0.178211 -0.735786
0.00179217   0.252173  -0.773857
0.360188  -1.4305 0.585398
-0.649134  -1.31964 -0.308609
-0.357105 -0.572943  0.434166
-0.107837  0.694343  0.618731
-0.758831  0.916156  0.166931
 -0.82474  0.811908 -0.121678
 0.522826  -1.43047 -0.215997
  0.702915   -1.29027 -0.0547281
 -0.753146   -1.36012 -0.0229652
0.155714 0.927797 0.438014
 0.583532  0.345891 -0.236758
  0.569972  -0.479921 -0.0651848
  0.4073  -1.4305 0.160223
 0.375667  -1.23117 -0.221808
-0.101215 -0.811308 -0.695273
-0.603665  -1.00418  -0.11989
 0.568947 -0.365683 -0.219009
 0.201168 -0.567604  0.516486
-0.0487411   -1.43049  -0.691897
-0.633237 -0.463208  0.327092
-0.0362633    1.00297  -0.259455
 0.337485 -0.802935  0.422383
-0.436622 0.0646521   0.59429
0.258325 0.500955  0.52999
-0.457233  0.203908  0.517778
-0.492014  -1.32125 -0.244421
-0.19373 -1.43046    0.343
-0.151704   0.21186  0.651839
0.211678  -1.4305 0.466726
  0.15258 -0.098472 -0.710913
 0.534476  0.280878 -0.423407
0.444765 -1.10364   0.4643
-0.638869 -0.918541 -0.515434
0.541785 -1.10165 0.214118
-0.584697  -0.56312 -0.413507
0.112642  0.43538 0.532758
-0.790756  0.742898 0.0755144
-0.852583  -1.41361 -0.218344
-0.490706  -1.43033 -0.546037
-0.0528719   -0.90469  -0.698919
-0.789354  -1.22055 -0.339268
 -0.49054  -1.41912 -0.909796
 0.157789 -0.913728  0.506363
-0.491044  -1.31198 -0.452852
-0.433917  0.560444 -0.465346
-0.021589 -0.220859 -0.763141
  0.547664  -0.189259 -0.0647527
 -0.145053    1.25299 -0.0655705
-0.468559  -1.20768 -0.883701
-0.353485 -0.917521   0.23078
-0.325168  0.480226  0.557334
 0.612097 -0.632231  0.277162
 0.444923 -0.439766  0.493333
  -0.78258   -1.42768 -0.0851235
-0.148363  0.930873  0.617983
-0.439756 -0.377753 -0.433773
 0.224311   -1.4305 -0.163255
0.322428 0.214478 0.491822
-0.395941 -0.199345  0.593855
 0.678631 -0.286769  0.107045
-0.0397491  -0.688241  -0.712856
-0.736366  0.867009 -0.194717
-0.0257959   -1.35227   0.655598
-0.552251  -1.32762 -0.663488
0.657837 -0.21121 0.567726
-0.871771  -0.48481 0.0271619
-0.579663 -0.987204 -0.651809
-0.114792   1.12062 -0.197011
-0.530622  -1.12355 -0.747715
-0.523007  0.932467  0.502713
 0.138783   1.15726 0.0929801
0.237997 0.496722  0.41865
 0.109927  -1.07435 -0.292119
-0.560761  0.245028  0.318958
-0.59113  0.76843 0.480314
0.0788359   1.06693  0.422735
0.00500949   -1.25942   0.652774
 -0.613143   -1.18183 0.00549864
 0.573517 -0.416798 -0.308324
-0.183652  -1.41226  0.518054
   -0.675865 -0.000337485    -0.410442
-0.538599    1.5809  0.518121
  0.405098 -0.0367789   0.580997
-0.585316 -0.793084  0.080785
0.277108 0.670246 0.272218
-0.175033  0.762187 -0.516946
0.143584 0.302511 0.514693
0.291878 -1.11236  0.59329
-0.319017   1.53388  0.385142
  0.540854  -0.365332 -0.0740933
-0.695656   0.29249 -0.162874
  0.520181   0.214773 -0.0781158
 0.236325 -0.506061  0.571354
-0.429358  -1.05817 -0.751911
-0.203395  -1.33096 -0.854542
 0.011952    0.6811 -0.582274
-0.247453  -1.39689  0.405992
-0.657568  -1.41352 -0.412658
-0.103252  0.746036  0.643814
-0.0946548   -1.19273   0.565997
-0.500764  -1.03666 0.0188477
 -0.46247   1.09019 -0.199303
 0.394838 -0.163798 -0.577264
-0.238303   1.05819 -0.418574
 0.552824 -0.925147 0.0270953
 0.326506 -0.860033 -0.477009
0.204378 0.800767 0.436702
-0.267127 -0.495265  0.520505
0.219779 0.433789 0.522579
-0.099469 -0.995996  0.452715
-0.423107  -1.32882 -0.197034
-0.281593   1.20193 -0.148882
-0.437433 -0.315819  0.508348
-0.0243017   -1.15141  -0.609078
-0.725081 -0.406068  0.203652
-0.580752  -1.38469 -0.132149
 0.524638 -0.725514   0.26878
0.0317885  0.206256 -0.762351
 0.62532 -1.27071 0.301525
0.125878 0.617481 0.617253
-0.814827 -0.486944  -0.38988
-0.921653 -0.433034 -0.118157
 0.510092  -0.83453 -0.290755
0.605179 -1.18976 0.238752
-0.221638 -0.152163 -0.705106
-0.574784  -0.66135 0.0807817
-0.725264 0.0911014 0.0569731
-0.0140655    1.06967  -0.197349
-0.0358185   0.882233   0.608606
-0.0391226 -0.0509368  -0.717474
 0.545834 -0.660932  -0.27871
 0.278671  0.715191 -0.393789
-0.185239 -0.857878 -0.743093
-0.430632   1.12979  0.536384
 -0.04538  0.546021 -0.665921
