 0.592859 -0.121547   43.5126
  5.6667  83.3936 -12.0975
38.1989 57.5806 9.49176
14.2542 79.5086 26.5492
-19.3375   91.136  -24.106
-11.2273  1.96654   19.949
11.1034 47.5646 34.8747
 13.7375  83.1061 -21.4191
9.12816 86.0272 20.3287
-6.90835  8.04258  2.55176
-19.4016   71.521 -7.25675
-5.41122 -1.57533  48.5658
-7.79562  57.0993 -15.1857
-58.1404  76.1892 -34.2426
-37.9212  47.6141 -9.51536
 -60.538  57.4936 -25.1517
 13.0785 -47.6392  23.2957
 19.2198 -47.3511     10.3
-37.1156  1.56572  16.7662
 21.8391 -52.7944  17.4757
-3.72476  84.2457 -21.2745
10.4887 14.2559 26.8968
-25.4381  73.3089   17.338
-26.0625 -29.2107  21.2724
  6.5949  69.7061 -33.4947
  16.252  34.7159 -1.05752
 32.3654 -26.5751  8.45222
 13.5733 -22.3863  11.8374
-10.4301  6.00867  4.59228
19.6665  19.856 18.9839
 25.3894 -50.9634  25.5422
 4.05767  55.7088 -32.1153
-30.8725  -47.355  6.90878
-23.5225 -36.5399  10.7258
 26.4888 -45.5181   25.439
-1.63786  90.4831  8.27854
 -52.362  76.3272 -33.8399
-11.4212  86.0034 -3.11174
-34.6197  -53.017  20.4866
 32.2412 -11.2446  9.80609
12.3341 16.4481  26.302
-26.4021   19.139   16.431
 10.8144  39.9804 -12.7784
 20.5018 -52.8434  19.4534
-32.7276  14.9236  13.5912
 17.4748 -15.3466  17.4917
 6.56573  52.8289 -11.8499
 38.1266  46.9504 -8.07557
 27.8611  59.4718 -5.37347
-3.33277  2.81701  28.4339
 29.5319 -5.04119 -1.53002
-22.4749  73.1227 -3.63798
-24.6743  -44.911  16.8349
-4.14113 -8.03563  57.2685
-13.6284  83.9698  -2.9124
-40.0959 -2.96982  2.88391
-46.6184  71.3012 -17.9875
-29.2113  66.3659  9.08647
-56.2429  75.8646 -48.9524
 22.4651    46.19 -3.70732
-48.7375  56.3411 -4.92873
-8.24982  87.6004 -27.5237
 48.3392  75.2622 -20.5705
 16.0433 -51.7125  16.0184
-54.9278  55.6179 -32.6546
-3.16211  80.2223 -25.9996
13.0773 30.0853 27.7262
-25.8024 -33.5036  6.08055
-42.4634  70.3359 -22.3803
57.3069 65.2199   -3.75
  11.0136   19.7119 -0.163754
1.59513 45.6093 34.8801
-19.1997  50.6739 -13.4912
 6.06876  24.6175 -3.61111
 25.6368   5.0811 -1.04607
  -50.31  76.8933 -39.0206
-38.5014 -17.6437 0.507703
-2.86957  54.7179 -38.6159
 3.16133  27.4663 -6.66185
3.31706 4.87575 28.9376
-9.80968  8.36209  24.5318
-15.7963  29.7536  2.41406
-5.6272 7.15857   29.92
-27.3153  70.8927  9.96802
-7.07892  44.8696 -14.8431
 27.4538 0.506947  21.5719
12.8961 33.4111 28.9919
-28.4193  -22.004  21.3316
 38.7572  56.1578 -14.0824
 22.4027 -44.6094  8.27486
-38.8019 -38.2533  9.82933
 2.53674  84.8293 -10.4883
0.426525  61.5009  -48.679
14.5148 59.1112 35.5055
-57.7556  58.9382 -32.9936
-15.9196  72.2211 -15.2193
 29.1746 -44.1502  15.5909
5.06803 9.32715 1.30553
-21.4436  71.3204  25.3802
-38.5171  2.66372  13.7875
22.4603 42.2858 3.13067
-44.5958  48.8864 -5.37069
-41.2642  52.5253 -18.4377
-5.64533  0.92505  37.7801
11.6703  6.9177 1.16697
18.5982 53.7755 30.8236
21.3012 -9.7732 20.2197
-55.3885  73.4947 -51.4894
-19.0369  78.1686  3.91084
-23.3425  41.3811  21.6247
-28.8931 -5.21815  20.6303
-20.3293  75.9899  4.36676
-2.77253  15.1275  29.7977
 59.0025  80.7791 -34.8241
-56.1634  52.9258 -22.8091
 -35.4794  -19.1229 -0.344267
-43.3592 -52.9011  1.70482
26.1584 6.80146 22.9734
  25.913 -11.5662  19.0405
 21.9152 -52.8949  14.3237
 35.3418 -48.2185  9.94086
-25.3059  67.2987 -7.19704
 10.6941  85.7923 -16.6757
 27.5706 -42.5296  16.2409
-7.32435  64.0665 -31.1786
-0.916136   60.2542   38.8686
 48.5597  87.6527 -39.6373
 27.9205 -52.3886   22.517
  31.128 -53.4916   17.334
-17.9214 -8.40979  10.9814
 29.0377 -30.3462  7.87174
5.60213 9.55661 26.2655
-24.6315  73.7516  9.51097
-29.4995 -51.7599  25.7118
  6.005 43.0031 35.0295
-51.5142  76.4249  -53.109
58.7446 67.0653 -5.2535
15.4789 -36.797 27.2601
4.68246 44.6979 36.2324
 -16.006  89.5901 -20.7843
 -16.0267   80.9543 -0.748721
-30.9868 -53.0287  6.94687
-43.0066  51.0093  -14.525
  -45.7907    57.1585 -0.0305903
-2.45038  47.4527  35.9853
17.8557 79.9793 17.3071
-12.6971  36.9346  29.5495
 53.4311  53.2798 -19.0491
33.9682 -14.849  1.7551
-20.7655  96.7154 -28.1134
33.0417 6.42003 8.90108
0.284535 0.630707  29.2846
0.666774  7.84546  33.0748
-31.9108 -5.86507  19.0862
33.9614 44.8764 3.68218
17.8134 14.2824 1.94409
-36.7757 -9.86682 -2.97834
-23.7426 -11.5153  7.46385
1.71274 5.21174 35.0303
-2.40995  77.1397 -28.1494
-38.4543 -32.2673  7.03846
-10.4738  17.9819 -1.16059
  22.194  3.30935 -2.04347
-45.1304 -44.7269  8.00726
  21.2937  -11.1436 -0.165975
-20.2927  28.4605   19.639
0.237398  56.8367  39.0031
-45.6269  59.9009 -27.5615
 10.9145  43.2854 -13.8628
  18.209 -39.4017  14.3615
-41.2568 -15.0331  3.34168
-48.7447  68.6087  -12.292
-17.7323  71.9882   29.896
25.3382  65.978 19.5784
 -14.986  75.8558 -11.2312
 3.93883  21.8399 -4.25102
   15.514   1.88383 -0.614261
-55.8766 -52.4455   2.7678
-30.1859  47.4903  9.18795
-29.518 60.5867 17.4651
-59.5398  75.3921 -42.1108
-7.85383  26.7789 -5.54339
  14.111  93.4961 -26.2718
-21.1967 -24.8569  7.03157
-15.7781  1.49452  3.30574
-6.57602  10.9954 -0.32018
-21.0666  54.9651 -11.3126
-11.3115  85.8252  20.3767
 26.0177  65.9827 0.260416
 51.7962  77.9357 -30.5865
28.2436 6.11427  1.2418
 20.9362 -52.8065  18.5166
16.9617 46.9872 31.0554
43.9787 48.6183 3.68115
 14.0166 -39.7803     22.2
27.9798 13.5654 7.57158
 14.2198 -9.36386  8.38378
 -12.8431    23.049 -0.810063
-36.7995  54.9239  9.87818
 31.2994 -3.51249  17.3624
-25.477 18.1281 8.70756
 27.1969  48.4997 -4.66787
-9.32208  1.68269  12.0471
-54.9357   77.438 -34.6856
-19.8882 -7.29372  17.2093
 34.1612 -48.8412  3.32244
12.6797 75.3457 31.0966
-18.4197  23.8893  23.2848
-33.7379 -51.8011  23.9352
 2.92431  68.5163 -34.0398
 53.5366  62.4798 -27.4539
  11.665  65.7209 -20.1897
20.0253 37.9014 4.06195
  2.1838  41.2356 -13.2223
-40.2382  -15.007  1.06457
7.92855 0.47374  14.898
 32.0036  51.7106 -7.77999
-5.71987  52.0055  -12.135
 31.0183 -50.6005 0.459251
23.4554 47.1803  21.293
 53.8142  81.4397 -43.2692
 56.9373  73.0442 -11.4947
  10.6687   13.3461 -0.441442
33.7105 -1.1125 13.4062
 56.6587  82.4168 -38.8475
-20.5031  76.8851  22.6652
-52.1765  70.5034  -41.811
4.83718 3.60116 7.10875
-41.5678  -17.985  12.5079
 60.7148  60.3522 -8.15054
 56.4028  74.4015 -36.8944
 21.8061 -21.4982  3.58403
 39.5164  66.4955 -12.8922
 12.6143 -1.63807  20.6498
20.8546 -33.445 9.74722
 -1.8818  89.2653 -7.87757
 8.80293  34.0409 -8.47182
 7.60449  21.1091 -1.68267
  -12.9061 -0.0720089    19.7827
 59.7414   69.864 -11.3393
 14.6776 -20.0078  17.5889
20.5399 71.5799 25.7147
 62.0649  76.1766 -30.0964
9.17102 80.2437 -26.423
 60.6741  63.1651 -7.20291
-48.5108   55.344 -30.6155
-13.9473  50.3884   36.336
-3.16249  6.55796  12.2902
18.0218 15.6471 22.9627
-2.68575  54.8937 -41.1169
-11.6947  6.71774  2.92536
-50.4557  56.5463 -8.08381
12.1628 50.1074 -13.409
 50.3987  51.3351 -6.57403
 2.98821   55.131 -24.0236
11.2132 71.8023 34.3429
 13.8644  80.9153 -4.69355
-28.4761   53.701   17.711
 30.5388 -33.8104  15.2442
-19.0513  61.2977  -12.316
 33.3553  48.0548 -7.54938
-15.1725  65.1911  35.2853
-41.9403  69.5165 -18.4771
-20.6431  30.8346  14.0102
-25.5789 -34.7447  20.8267
 29.0833 -36.5313  14.9064
 22.0062 -53.2547  25.1318
-29.1504 -39.0794  7.61764
 -36.288   56.943 -15.1511
-8.95001  86.5647 -16.6318
-23.4792  69.3717  24.1764
-8.81651  27.3759 -3.67479
17.5478 20.1089 22.1642
-29.3963 -29.5937  22.7448
-10.8468  37.5229  30.6674
 52.2183  80.2865 -32.5008
 22.1165 -24.5322  26.6414
-15.2817  92.3574 -30.7537
-40.7731 -22.6061  4.02949
-33.3754 -14.3038  17.8228
 -38.7139  -53.6751 -0.200139
22.9952 17.7643 8.87706
 19.1977 -53.4619  11.9604
-21.4535  78.5948  12.5797
11.8941 71.5209  34.046
  59.724  76.2747 -35.7539
0.544874  78.4669    33.98
15.3592 47.6665 32.3388
-28.8185 -25.2704   1.6053
-42.6416 -45.1396   3.6989
23.0964  40.612  19.005
-38.0475 -44.6985  3.40384
-19.9128  40.9656  28.1618
-41.4962 -47.2771  1.71054
45.0065 55.0017 5.24998
1.04913  4.0754 24.9028
-40.0101 -42.0096  16.3255
32.0004 8.74901 13.6358
 9.59894 -2.24113  11.2814
4.80767 6.44285  23.046
  7.6362  84.4804 -24.1489
-27.4657  47.9252  18.3854
 29.6987 -16.2491  16.9891
-37.8439 -26.6177  21.3532
-17.9218  81.5397  8.21056
-27.7395  -53.711  22.1484
 -13.011  33.1599 -5.47547
-28.958 54.4036 16.9337
-32.5743 -8.47764 -1.69442
-2.04211 -8.38255   53.685
-17.7327  74.9436 -6.00937
-19.2355  80.4577  18.8199
 59.5039  58.8396 -7.01038
-28.4135 -36.6789  6.32811
 23.6846 -46.6387  4.16496
21.2392 54.2754 28.5735
-33.7641  3.86985   21.238
-8.66755  83.8019 -14.4751
 33.0619 -27.6475  19.3656
 39.3123  62.6744 -8.08045
0.385355  22.9601 -5.80335
-51.5551  76.9061 -41.8057
-37.2634  7.29885  5.02922
-19.8435   32.532  6.84784
-2.71081  56.7676  39.3796
 14.6657  90.8862 -28.7979
-41.5782 -22.8092  16.5052
-8.49713  89.0789  6.92036
7.20126 83.3748 26.6657
  31.454 -46.6747   17.462
 52.5695  53.4143 -6.73539
55.8857 74.6771 -36.366
-60.977  64.935 -47.187
0.161449  51.2841 -31.6781
 41.9098  63.4628 -1.13846
36.3674 62.2443 8.07404
  43.4302   48.3981 -0.630879
-15.092 2.33629  2.4305
  34.7785 -0.766389   5.75523
30.5207 11.1145 15.2846
 45.5657  49.3946 -12.6132
-39.4939  2.74861  11.8965
-32.2651   62.638 -11.1739
-25.7169 -45.3273  12.7884
-2.47654    31.61  33.2695
9.93456 75.0698 32.5872
15.5435 21.1372 3.05996
 46.0164  49.9961 -16.7375
-47.4128  73.1316 -24.9637
 51.9175  57.4219 -25.2173
 45.525 53.9209 1.88742
 32.0993  55.6243 -7.57369
   15.27 -37.6655  15.6443
-45.3331  69.5154 -31.1975
-12.8983  60.3468  37.1332
-38.6002  63.3298 -16.9782
 11.9132  62.1643 -11.1209
-38.7719 0.466722   14.472
-45.0498  -46.082   13.122
-25.4381  5.29585 -1.62007
 28.2395 -44.7096  21.8948
-29.7144  65.8176  2.85336
 24.687 12.4919 20.7094
 18.7854  63.7164 -11.6547
 36.4483 -49.2315  13.0925
 -17.3787 -0.510239    2.7264
-33.1183 -37.6797   6.8311
-27.9821 -1.07608  23.1253
-58.1066  55.0426 -17.0878
  10.766   79.993 -26.2582
-42.7697  64.5534 -23.2909
-38.863 -26.366 20.3052
18.1521 33.4508 7.44457
 3.57871  57.7943 -45.2923
-29.6603  8.06317  23.8877
 49.1913  56.5995 -2.41066
-22.9209  41.8446 -3.14362
-59.8158  67.6714 -49.0025
-57.5004  58.6135 -33.0362
23.8637 46.1467 16.9465
-22.8377  44.5959  25.4865
 -8.87751   12.7632 -0.121147
-2.33639  89.8567  15.1106
16.9121 31.3487 22.4052
 10.099  52.562 36.3889
-1.99583  60.5151 -47.1926
-61.6555   68.014 -44.4964
-13.3156  12.9585  26.9608
-38.2158 -36.9104  8.77476
-51.2169  51.2749 -24.6523
 59.0102  72.0097 -19.7172
-7.95402  61.8995 -21.5407
 5.1836  13.884 28.1719
-24.1487  73.5443  0.49291
34.9246 47.8952 9.94532
4.54492 79.7147 32.2289
 3.99829  81.0795 -22.1238
-27.1716  16.8061  19.5541
 9.02415 0.270269  7.25571
 16.4912 -16.7112  14.4746
18.8633 2.09823 24.6361
13.9838 82.2548 19.8966
-48.1101  64.8734  -8.6645
-27.7014  64.0255 -6.08826
-18.8164 0.997346 0.236375
9.36509 55.7438 37.3604
 33.2141  59.6731 -7.53075
 13.6533 -36.4274  22.3184
 1.51271  13.8519 -2.75311
-5.01999  54.9484 -31.0644
-22.8826  41.9717  25.4403
-11.9858  86.7126  16.4453
-49.6448   81.518 -43.3435
 25.3212  49.8864 -5.39968
-30.2115   5.3526   23.853
-15.6135  64.7089 -13.6299
-36.2502 -22.9282  22.3581
-2.4033 85.8849 -15.956
-60.8779  61.0794 -30.2822
 32.4352  62.7049 -3.25402
-14.7862 -4.70889  16.0459
-20.645 29.4056   13.73
52.4939 51.5918 -9.2228
5.38146 22.1654 31.1907
-47.4503  63.1745 -31.1972
-13.269 69.6914 34.6127
-5.85677  56.2241 -27.4049
 45.6325  52.7163 0.897193
-50.8489   58.789 -32.3072
-14.6319 -2.84008  10.4693
  14.749  9.58816 0.613288
-60.0859  58.5549 -45.7645
 -13.4094   84.4112 0.0235982
 1.99638   72.198 -30.1404
-27.8997  47.6241  13.0376
 1.90111 0.258975  40.2139
 51.2321  84.5052 -34.6888
-29.9107  10.9599  22.8542
 34.0275 -51.3517  8.11117
-2.26919  52.5664 -28.1329
 9.63168  48.4608 -14.2197
 49.4815  84.4616 -23.6822
22.1717 74.3276 11.4941
-28.0946    50.69   19.073
-32.4838 -52.8054  20.2425
-20.6291  17.9473  23.7474
1.10857 53.8109 -23.234
 19.5997  68.2446 -7.26504
-0.55666  70.9439  -32.044
  44.97 58.7947  4.1089
-61.2473  67.6646 -25.2003
-57.4247  57.2352 -13.3368
 32.7494  45.5346 -3.41695
-11.5353  86.0687 -26.4886
 18.511  78.715 21.0809
-33.2425 -32.5515  5.06691
 52.1684  87.5729 -38.2556
 38.4389   57.842 -12.9636
-27.9073 -53.6111  14.6312
-36.6105  62.3529  7.00825
-40.623 -8.1707 8.46587
-53.3611  74.3756 -25.9409
 -40.341 -47.8714  17.8765
-46.0926 -53.4956  11.8827
-4.41401  20.8762 -5.40423
 28.9728 -49.0918  3.45429
-10.3723  87.5274  4.69282
 -7.2995   14.734 -1.57946
   10.048   85.0572 -0.732338
 -16.147  32.2672 0.133131
-16.9108  26.8684  4.57293
-59.4655  69.4306 -17.6157
-20.8788  35.5216  7.31939
-50.7146 -52.7421  6.54901
 31.5031 -34.3095   21.981
21.6326 73.3032 2.97944
 41.2032  69.1011 -15.3555
 54.4085  72.6865 -31.7015
19.1802 61.0889 30.7854
2.27054 63.2619 39.1393
16.7914 30.5696 9.14561
30.3985  65.109 8.16419
55.4018 53.3156 -15.535
-34.0066 -23.4612  1.27188
-23.9666  18.7569  6.63911
 -42.656 -48.4722  16.1792
-25.6645  71.6495 -2.01038
-35.9388  64.4823 -10.5668
 7.80748  62.7119 -20.2814
 23.0319  9.75546 0.329371
-5.10001  39.8966 -13.1878
-24.5473 -36.1467  9.19857
 6.2968 11.3013 0.29167
-13.6398  83.6927   2.2758
-12.3485  40.1031  31.9837
-25.8135 -37.4751  20.9857
 28.0242 -41.0131   16.668
 13.7676 -45.3805  25.3647
19.8674 -48.214 30.7522
-60.4943  73.6468 -42.2443
 2.85099  77.4658 -26.6573
 7.94509  83.7636 -14.7149
 15.8465  90.2586 -19.2643
 28.4425 -43.4325  21.4745
-20.4027  65.7643 -13.6662
-6.07455  77.9938 -26.8379
-10.2459  78.8963 -23.6175
 -35.3372   -51.741 -0.719015
-36.6668  6.92354  3.74955
-7.32199   16.246  29.1962
-29.0973 -53.2694  11.4007
-4.16934  64.8345   -33.52
20.4186  66.091 28.8404
-15.5755  26.8487  2.57246
-21.0788   25.577  9.92273
 61.0487  69.4915 -35.4891
10.8334 86.2771 6.34502
 14.0789  49.1072 -12.9123
-6.52096  37.6595  32.8516
-53.2338   67.564 -40.9994
-25.8865  73.7302  13.2417
 24.3401 -31.0678  28.5623
31.6694 1.14788  17.484
-26.8953  71.9856  5.08099
-2.6714 0.90571 44.5362
-56.6897  60.4203  -51.616
 15.9005  45.6634 -12.0756
-24.7339 -37.8716  20.0122
 -13.4446   28.9744 -0.318197
-31.3548  58.9907 -10.9474
 31.8756 -32.0355  17.8181
 7.11198  61.4369 -39.2341
-60.2072  71.4431 -44.0166
 25.4713 -35.1133  10.4487
 26.8559 -46.0213  25.2463
-40.5615 -26.7354  18.6681
-52.1108  70.1551 -41.0091
-7.39253  37.4304  32.4759
 -7.1423  61.8123 -38.8646
-2.02417  6.72306  17.5841
-26.2471 -15.9221  4.12801
-42.5252  48.2344 -10.9379
 -22.054  66.0052 -12.0086
3.68647 81.4799 30.5774
 23.4547  52.8763 -6.82531
-17.8428  69.9427 -13.3103
-14.1556  55.1463  37.0975
 31.0669 -24.1088  5.70946
-7.5096 75.7392   33.92
41.3999 60.3311 4.68019
-15.6686   34.135  28.6091
-5.99314  72.2842 -33.4238
3.10047 4.57796 32.3272
-42.7255 -19.0752  7.44114
 8.68066  61.2115 -34.2835
 53.2535  86.2861 -32.0032
-0.736244  -3.40162   51.6334
4.03952 43.5448 34.2162
 17.9733 -23.6959  25.1982
  -11.35  66.9252 -27.5437
10.6253 60.0441 37.1275
24.6234 59.4598 24.1315
-42.0311 -21.4191  10.0226
 27.6689 -27.0123   26.796
-28.2463  64.8484  20.9674
-41.1401  49.7542 -14.2497
-14.4472  35.3355 -8.54644
-18.9138  79.0568  5.89207
-22.3295  -21.791  15.5734
-15.7269  74.5361  29.3427
 -20.301  71.9258 -5.77782
-30.3412   62.809   15.106
-29.4833  61.1788  13.5777
 7.61329  69.6043 -32.7863
-22.9696 -49.7767     18.9
 6.81299  87.7255 -1.62491
-11.1205  12.5292  27.9123
 -12.988  76.4524 -18.9522
23.0385 45.0668 21.6621
-4.79597  56.2011 -19.4218
  9.88912   14.0191 -0.694106
 51.3258  50.2474 -12.9032
 5.1962 61.0207 -43.051
 5.52583  88.2531 -4.40901
-33.7124 -35.0384  6.07178
-51.1232   83.935 -43.3903
31.7146 60.2563 12.9999
-27.3337 -53.3451  19.3471
18.9993 21.5526 19.3903
 13.7004  88.1229 -28.1823
-12.3411  79.7093  28.7361
  14.979  34.4793 -4.55919
 48.3885   67.419 -22.4951
-20.9038  36.2732  13.1099
-13.8169  59.4467 -13.1078
-4.07811  36.7806 -8.89045
-24.3259  46.3305 -5.48211
-3.99209  52.0992 -30.7747
-59.0334  67.5356 -14.8837
15.6643 72.6778 29.8127
-37.4469  8.20725  12.7575
-26.9458 -53.3037  24.6664
 17.9314 -30.1525  27.6382
 13.9392 0.436725 0.218365
11.4133 83.4567 -27.741
 7.82213  9.89271 0.319434
-23.1327  65.2202  28.6115
   6.177  56.9303 -29.0812
  19.306 -41.3109  29.3355
 58.9398   77.655 -22.0126
-16.0822  93.6367 -30.7421
 45.6948  70.5571 -18.9507
-22.9835 -2.23511  23.3119
-22.7241 -38.8963  15.7471
-40.6141 -52.6961   9.3502
-21.8629  -26.482  15.2158
-14.9444  68.1619  34.4179
-13.1919  81.2514 -22.2709
-31.2488 -35.7373  5.53579
-39.6528  47.7826 -2.10479
 62.7169  62.2993 -13.8946
-5.59374  55.4699 -14.7134
-35.5911 -47.2094   22.338
 15.8924  71.6396 -6.79644
 2.97103   55.413 -36.0252
-32.1211 -27.1412  2.71038
-17.9495  28.1209  6.83811
-28.3076  -35.733  22.8558
 2.13254  63.7901 -40.9756
  -19.991 -0.693168  0.111852
 54.3141  81.8691 -37.9105
-33.2237  53.6462 -13.0385
-61.1811  59.3203 -28.0307
-30.7194 -9.00753 -1.20595
 7.24262  60.4333 -28.0753
-38.5664   66.274 -5.03806
 42.0487   60.149 -15.3693
-56.8794  70.0196 -49.8087
-50.9335  77.0717 -36.8994
12.4171  41.223 32.1887
-4.59215  6.52046  20.1193
  -42.2885   -11.3846 -0.0160365
 63.3507  70.3793 -29.7576
 22.2327  64.4873 -7.49309
-27.0198 -4.61168  21.2168
 19.6047 -12.3574  19.0985
 52.4863  86.2827 -24.8096
 56.6275  60.8982 -25.6777
20.7058 18.7958 16.1949
-27.4147  17.2342   9.9352
-34.5103   52.159 -12.9627
 25.3077 -9.77906  19.5199
-24.9205 -22.3024  2.42025
17.0429 62.9399 33.1276
0.686547  89.5602  5.49367
-32.474 14.5911 16.5343
-12.3917  76.4649  31.4767
  -12.84  89.9787 -19.4979
46.7499 49.6358 -6.4438
-35.1497  -3.9561  17.8242
-35.4135  64.3053 -10.3852
13.2826 82.0933 22.2751
-17.8457   46.497  -13.789
3.13647 15.9689 29.9103
 -36.786 -44.7422  20.7949
 12.0306 -6.40819  15.0743
-31.6392  -9.9194  16.4172
26.2366 65.2637 16.0882
-2.97318  33.1065  33.1515
-22.7444 -51.9587  22.4337
22.5866 74.0685 16.7093
 -37.1128 -0.444408  -0.54625
  40.893  65.7784 -7.93074
-46.8494  63.6705 -4.41701
-5.79441  30.4927 -8.48209
-39.7364 -1.90056  2.07463
-11.0366   93.137 -24.0447
 26.6865 -15.8906  19.1919
-6.15859  57.8301 -25.4916
 5.05772  19.2613 -2.34979
4.50646 12.9185 27.8356
-20.9781  91.6447 -26.5444
22.8279 53.6461 25.0298
-48.8144  70.5744 -32.5055
23.4267 71.0199 3.15938
 49.0403  78.4696 -21.5254
-27.736 -50.744 11.2072
-0.656871   75.7329   35.4906
32.7295 64.4443 2.41436
10.7298 69.2795 34.6121
-2.98696  52.2661  38.7333
-6.59477  58.9569 -21.7995
-31.8338 -53.7153  7.70556
-51.0803 -48.3402  7.41359
 60.4004  79.2589 -31.8983
 34.7208 -6.60669  4.30559
-60.5725  61.1933 -51.3791
-17.1199  18.6218   1.5833
 17.1147 -18.2403  19.6732
-39.0922  3.86271  4.33604
-34.6543  3.67047 -0.89909
-28.3068 -53.5853  14.1425
-53.9674  68.5693  -13.179
  30.012 -24.8947  24.6946
 17.3684  83.5986 -19.7587
0.775115  86.0781  25.1403
 46.7809  75.3333 -15.4628
30.3213  44.619 5.67418
-51.5674  63.9608 -35.8152
  18.42 43.7305 27.4549
 52.2173  88.3939 -29.6703
 32.2906 -19.8072  3.98799
19.4408 38.9329    20.4
-32.697 1.18973  21.697
  5.0051  29.1601 -7.48561
-62.0737  57.7711 -21.8318
 32.8645 -19.3188  12.1825
-19.2604  72.7427 -6.26268
-29.194 68.5876  12.637
9.75578 32.4878 30.9576
-0.885312   4.70476    36.879
 -34.832  66.1798 -1.53959
6.79171 2.02939 10.2858
 16.477 25.9254 22.1728
9.74139 2.44659 20.0876
11.5216 64.4654 -24.895
 16.457  27.218 22.3886
-29.1826 -15.4852  1.41984
-6.00872  7.06563  24.2884
 14.9301  79.8445 -5.19975
-10.3561  17.4706  28.5518
 33.9625 -8.20245  9.90792
-59.9941  67.2735 -30.0645
-32.0777  45.6381 0.724998
 21.8491 -7.07413 -1.56367
-4.41412  47.0703  37.9012
 20.7742 -53.1252  25.9385
-6.89037  42.6529 -14.6024
 11.945 74.1277 -20.714
-50.6877  49.9944 -17.4114
-50.3234  75.7913  -37.998
-42.0726 -19.5944  3.75816
-1.71625  45.4554 -12.0946
-29.0767 -25.8273  22.2631
 34.8896  48.5306 -7.96872
-22.7247 -19.2188  15.1164
 9.8808 21.0558 28.4733
  -12.485   28.1048 -0.891823
-17.0418  53.8718   35.465
-9.8351 85.6835 22.1058
 2.32208  61.5327 -44.7477
 12.4283  32.5082 -3.73138
-15.3595  46.1756   34.525
 5.31535   38.405 -12.8404
-14.5863  36.4485  28.2034
  2.55532   89.3335 -0.646233
 13.6401 -50.5885    20.52
-39.6221  65.5751 -22.7235
-6.07932  26.4669  31.8787
-44.7062 -50.0325 -1.12843
-24.6424 -4.88471  21.6455
 59.9569  58.9751 -15.6339
-57.3592  58.5989 -35.7496
-2.68594  75.2745  35.7072
-18.6063  43.2326  30.8515
 31.4147 -14.3653   13.794
14.6703 54.3677 -11.708
23.8859 72.0554 14.0957
  33.875 -3.17092  13.6502
 -37.097    66.21 -1.63114
  20.529 -35.7811   10.784
-28.524 64.3643 18.7844
-24.1388 -38.6724  11.6663
19.3194 39.1683 23.3022
31.6082  4.9349 17.3174
-41.2376 -26.3297  17.3317
29.5217 61.0442 13.7477
-49.1113 -49.7663 -4.23298
-31.8003 -50.5089  4.71122
-22.3444  6.23267  26.1156
45.0538 72.1652  -10.85
-58.7748  71.7908 -27.0755
19.2893 40.7305 26.1194
9.83234 5.25057 23.9353
17.5667 46.1876 29.9674
17.0973 -52.893 26.2634
-12.7519  94.5785 -27.2364
23.7143 63.4158 24.2107
-25.5672 -48.8355  14.3403
-14.4353  0.95234   5.3498
 32.2704 -22.8213  6.81653
 12.7644 -32.5308  17.6834
-29.2075  49.8993  -8.3774
-31.9327  15.7371  12.5745
 24.9805 -6.91842 -2.28513
-54.6348  51.9628 -21.3865
-41.0006 -28.6028  9.58359
-7.54279  88.4537 -23.1549
12.0054 80.4484 27.6006
 50.0949  88.0572 -32.6122
-3.32519   25.441  31.5786
35.9685 63.2372 1.56567
  30.988 -25.1958  23.6221
 27.5554 -51.8967 0.606855
 29.1383 -44.0507  15.8822
-22.7529  58.8248  30.9509
-40.2032   61.461  4.56106
  41.8242   62.9809 -0.119615
 6.44385  62.7946 -35.7003
 16.8869 -16.0817  8.26103
-47.4408  53.4895 -1.85877
-9.49372  82.4403 -8.52233
10.1096 37.3317 29.5128
 -47.004  49.9321 -20.2409
-3.62446  88.6718 -3.19058
 55.0102  82.6812 -40.2414
 1.31442 -3.93391  37.0966
7.59658 19.1712 29.3021
-10.2759  76.0375 -26.6268
 30.7551 -36.7484  19.0908
 50.2056     53.9 -22.3537
-15.7051  41.5222  32.3386
-14.1059 -2.11759  19.2115
-25.1776 -32.8254  20.6069
-46.1406 -46.6428 0.859691
 61.4917  67.6727 -14.7035
6.23302 5.27659 3.53201
-48.6046  59.6397 -2.66302
-4.2541 5.20678 34.8155
-13.4414  7.85466   25.276
 15.7826 -46.3362  16.8782
6.09766  80.183 31.1406
 18.839 24.4745 13.4044
-21.1352  42.6014 -9.14003
 36.0313 -51.9771  7.26445
 2.43404  54.5602 -24.4902
-18.4706  66.3752  32.2164
-1.11394  86.2028 -9.95263
 23.9031  55.3395 -6.79902
-59.2325  63.0366  -49.947
 9.58874 -2.13018  10.1859
 20.8588  56.2332 -7.84992
-11.9008  76.9001   31.601
-24.4118  62.3556 -10.9722
-28.0097  60.1765  23.7742
-0.168134   -5.1577   39.0016
-26.3311  66.0998 -6.21734
0.0219953   87.4163  -8.44402
-24.2537  21.8225  14.5777
-5.52214  21.3854  31.1164
-19.9001 -7.15321  17.5568
 60.0713  67.9607 -33.2138
-56.2101  59.3592 -42.1112
 61.5859  75.1883 -26.1995
 34.0722  45.7151 -4.47787
-26.6712  49.9279  22.6702
 8.58994  62.6801 -15.8026
 -42.1164   63.9176 -0.835071
-44.1789  59.7879 0.591118
-18.3188  82.2236  13.0084
-23.9933  -12.218  11.6889
37.9261 48.0178 6.78803
 14.6948  18.3687 0.977889
-23.8444  47.5013  25.8395
-59.6603  75.3953 -35.7581
 8.50627  85.6252 -16.9107
-18.1138  32.2011  24.0715
-7.76987  87.6793 -26.3341
-21.2729  24.0719  9.50094
 8.53501  86.7446 -4.67694
   12.26  90.7578 -19.8207
 3.22684  38.6892 -12.5749
 11.9884  77.4794 -18.4551
-13.384 73.3322 32.8336
-0.937337   2.28944   27.6998
-61.0158   63.035 -30.2946
 54.4203  72.3291 -9.38309
 19.2662 -34.7695  10.2357
 18.0901  90.0921 -20.2445
 4.31903  75.2193 -29.3684
 58.2435  70.6822 -7.00519
42.6034 48.9673  4.0962
 12.3334  67.2015 -12.1033
 -33.2962   -15.754 -0.195152
 8.53599  62.2498 -28.1976
0.688854  6.70778  3.81643
-8.96606  88.8447  14.1543
 20.6736 -39.9592  14.4021
-20.5577  31.3142   11.739
 -41.314 -26.8022  16.8038
-55.4832  63.5674  -44.908
20.8973 38.9548 4.14173
-12.7959  91.8106 -30.0775
-29.4954 -48.1664  25.2877
-11.8549  64.5562 -22.0048
-3.82284  78.8592  33.5473
23.3528 58.1601 25.5346
3.02227 59.7168 39.0826
 51.8807  56.4535 -3.63872
 -11.7672 0.0205064   17.7265
21.6559 52.7576 28.5632
4.33387 89.4332 11.9115
 3.15119   65.284 -37.2852
 27.9109 -23.0726  25.6825
-6.23718  84.1556  27.4794
 30.5834 -9.06192  15.0582
-30.3305  50.7749  11.7955
1.84575 89.9849 11.3793
16.6164 88.5431 -22.575
24.8865 16.3811 8.05225
-2.4205 6.28894 10.4867
 10.1342  55.3698 -11.4986
 -36.179 -27.8252  22.3332
-38.0624 -40.3074  19.0028
-9.47053  77.5478 -26.8481
18.4419 79.5564 15.8824
-24.2906  19.1526  20.3139
-43.1911  51.0948 -17.8464
-31.5867 -10.4684  16.2098
7.41712 39.4031 31.3535
 15.7454 -45.1765   17.293
0.676403  49.9307  38.6475
-21.9153  52.5785  29.7676
-40.5648  54.0167 -21.5655
3.85224 4.22035 19.3642
49.3916 49.9588 -9.4086
-20.0655  32.2237  8.59876
 60.1804  66.4259 -27.1644
-49.0729  53.1867  -28.977
11.1001 85.0209 15.6205
-15.6721  79.7036  24.2541
27.4087 47.6419 12.2889
 46.5196  49.9093 -4.39678
-8.24938  33.4075 -6.75128
7.87225 85.1603 23.0447
5.30959 2.59225 11.0156
 30.7339 -17.5599  17.6218
-13.0107  85.1401 -23.1219
-42.9242 -51.3451 -5.04807
-35.1601  57.0749 -14.4942
54.2975 78.3784 -17.935
-5.57439  57.6236 -42.6541
 19.2897 -41.9033  15.2457
 31.484 -27.071 7.68095
27.7452 4.18771 21.8405
10.5054 90.5267 -21.578
26.2585   12.35 19.4352
 56.5706   84.656 -28.8826
 33.2046 -23.3061   11.615
23.1929 72.8327 16.8099
-26.2007  -12.152  14.7952
 -61.255  70.2454 -40.6725
 14.285 82.7628 6.99865
-18.4912  50.6778 -13.7442
 13.4509 -29.6564  11.6935
30.9495 63.5794 10.4069
 23.8478 -38.0764  30.0004
15.2103 78.8677 1.46927
 48.5846  82.0497 -24.5196
-62.0467  61.0709 -45.3915
-15.5145  51.0021 -14.3085
-26.2997 -29.4751  3.66626
-6.17624   47.372  37.5397
 4.05485   55.679 -40.8252
-53.6148   74.285 -28.5974
22.3029 40.3254 21.3055
 18.8504  73.3978 -3.24235
 26.4796 -45.7904   7.0458
5.94756 2.34513 13.0185
 61.3514  64.0278 -21.1532
38.0399 45.9515 2.52644
-38.0099 -53.1949   19.215
5.60992 29.5423 31.6458
-32.9882 -34.9225  5.82405
16.7645  32.366 22.9844
-52.4653  61.8967 -9.69035
3.98862 82.4774 29.2183
 26.0902 -44.1058  10.0371
  34.522 -53.6707  9.31843
-24.908 43.3074 21.4616
24.2647 51.3724 19.2187
  3.58553   12.1398 -0.159786
-23.0529  63.0707   29.521
-29.2112 -36.6276  22.9509
-28.7381  68.3019  14.3759
 49.6264  76.3486 -15.9324
-0.525479   28.5724  -8.34101
-19.4851   23.203  5.98444
-9.11608  1.53448  15.9517
 51.6628  75.2796 -12.4013
-41.6162 -27.0195  13.8609
 30.3661  53.7904 -7.29084
-35.2603  10.6708  7.41852
 25.3524 -52.9725  16.5354
 30.2735 -20.7598  3.81799
 21.0036 -4.90411 -2.03707
-27.9767  11.6306  1.85183
0.416529  53.7282 -34.1728
-56.5284  69.4193 -53.8875
  5.38356   14.8432 -0.988993
-14.2189  26.8198  28.7936
 19.021 13.1099 22.8047
30.6932 56.8698   15.02
-41.7322 -53.3156   16.176
-51.5163  58.5949 -9.09767
 58.8639  59.2022 -21.8843
-23.625 41.6785 23.5005
-63.0051  64.9482 -24.5832
-44.9691  65.4619 -27.7363
 28.2684 -53.5433  6.80965
-23.9041  39.7024  4.96496
-22.024 67.4435 28.6456
11.0823 8.84434 25.9915
-1.88599 -4.19658  54.2647
-22.7777 -24.2679  17.3033
 33.2934 -22.8348  16.6361
-24.8442  41.8375  13.2278
 -47.262 -53.4621 0.876701
-8.76247  59.6934  38.1013
25.4078 69.7321 9.59506
 34.4548 -46.9827  11.5154
12.0032 82.5768 23.8184
-18.8648  36.5837 -3.71546
 15.8736 -17.9011  17.0742
12.6282  82.458 4.03588
 -20.811 -26.6852  11.4918
54.4567 63.9771 -1.9595
 -29.888  46.1805 -2.41951
-14.7278  67.5818 -19.9493
-36.9714  6.75903  16.0731
 13.416 -35.639 18.0704
-1.58076  81.4357 -23.5212
 61.8709  62.7469 -17.6961
5.46526 47.2532 36.9472
-17.2878  78.9861 -4.01841
 24.8056 -18.5321  23.5142
 13.6817  74.0547 -13.0612
-23.4275  16.4224  23.1068
-34.5305  58.0085 -13.8231
-34.5521  64.6257  5.08535
-14.5014  53.9906 -13.1027
-2.76039  -5.4242  39.0926
-21.4655 -9.22919  16.0656
 29.0608 -18.9917  23.0366
-42.0892 -52.7673  -2.2497
  21.601 -46.8539  4.05715
16.3684 91.5835 -28.018
-25.6861  6.93342   25.523
-21.8273  22.2443   19.422
-13.8733  74.3405 -20.5245
-13.8518  3.70884  23.4433
  29.277   63.236 -2.09955
-25.3309  60.0463  27.6363
-6.47013  85.9667 -16.7316
 62.5953  71.9245 -25.7267
-16.5159  65.6748  34.4963
-27.598 44.9613 6.99921
 7.06252  58.0653 -40.7543
-52.5076  71.1986  -17.072
-41.1485 -27.1804  12.2564
-17.4804  13.6662  25.8103
-61.9783  59.8909 -39.5051
31.1297 9.99806 11.5146
41.1518 57.3358 6.67388
 22.5888 -52.8578  3.18233
 -60.698  59.5996 -48.5775
 30.9919 -21.0437  22.4309
-31.8517 -21.3792  1.26498
 2.71296  89.2452 -1.00395
-49.5307 -47.3802   9.5969
-60.8512   64.932 -15.7856
 14.7938 -49.4998  31.2495
4.39924 3.33015 16.5356
21.9294 41.6777  2.5192
 -54.435  66.8237 -52.7651
-52.6061  72.2874 -44.3921
-37.4178  46.7704  2.56308
12.8252 1.50086 22.7715
 25.9305  -17.898 0.694256
-51.2812   55.471 -33.3695
  30.998 -45.8791  8.58421
-38.498 49.6476 6.59731
 -29.466  46.3663 -2.25827
 37.4139  45.4386 -1.40146
 33.1551 -10.6188   4.8088
 26.031 53.6006 17.5119
   28.1459   -51.4409 -0.0779233
-14.1946   14.991  0.43744
-55.4397  72.7417 -21.7165
22.3663 72.4123 4.91188
-53.3668  68.7166 -42.3746
-52.2629  73.5963 -22.5045
17.4052 76.2462 3.70114
23.3537  48.717 23.2043
-9.5591 57.4735  38.296
 33.8755 -5.37611  12.6086
-32.5597  48.2047  7.90616
 17.8229 -17.2147  19.1694
23.4618 -26.197 27.4462
 59.6389  77.8899 -23.4953
 2.7928 83.6094 28.1944
3.55324 61.2475 39.1384
 9.1547 27.8042 30.9771
 12.1656  76.5326 -6.69502
-27.426 64.1412 23.5602
 -29.726 -15.8434   19.044
 -54.196  66.0366 -45.4544
24.3297 9.95124  1.2054
-15.8266  74.9656 -10.0337
-58.8523  55.4596 -26.3839
-24.6069  66.0942  25.6918
3.81945 3.28785 9.53705
 23.4967  70.3813 0.747312
-38.5035   58.557  8.23762
27.9497 12.6324 6.32261
-39.5934  -30.854  19.6042
-46.2602 -52.5577  14.2118
-7.22591  20.5956 -3.91746
-14.1556  83.5743  1.05991
 27.2526 -53.2721  8.20958
-9.8618 8.19739 24.1604
 11.4826  72.8743 -21.9897
-21.0764 -10.1897  10.0763
-45.5993  67.7959 -11.5798
 28.9291 -48.2574  22.0635
-61.0529   71.917 -37.6502
 7.72958  73.2642 -28.1286
31.1406 44.6562  1.8946
-28.7205   64.161 -5.88172
39.7681 56.1316 8.40276
-8.36676  61.4994 -28.1585
 13.0694  79.2637 -17.5718
-6.23593  56.6186 -38.0364
-28.195 49.1729 14.9116
-59.8512  59.1676 -52.1005
31.4192 6.36995  4.4688
 14.4613 -20.9361  10.9808
 17.0275 -25.6255  6.79057
-28.7245 -52.8405  11.1905
-38.8747  62.8485 -21.2912
-45.5982 -52.5735  14.5261
 -6.6387  83.5731 -24.8855
 9.84118  61.0886 -12.8051
0.224523  89.5536   10.335
28.7448 9.59686 19.5251
-57.9527  69.8686  -17.514
-53.1953  53.7539 -30.1043
 9.60264  72.0195 -26.5227
 21.5629 -38.8256  13.3336
 29.7834 -53.3894  3.67192
-15.2058  66.8718 -18.1197
-8.12704  7.85485  22.6638
-53.0901   72.525 -49.5066
 7.25951  60.8551 -19.4204
-30.748  16.694 13.8461
24.7927 70.6546 4.83936
 15.5616  90.7258 -29.2108
 34.1483 -53.8961  12.5926
  31.7017  -50.9242 -0.225378
 17.1066  71.0723 -4.56783
-11.6683  53.0517 -13.1391
  12.594  81.9751 -16.6571
-4.10531  13.8447  29.9719
 8.3281 74.7635 34.1412
-36.7486 -40.3944  9.29061
 52.1451  81.9532 -33.1747
 51.7228  52.2819 -18.7947
-5.82161  75.2067  34.5531
 7.70383  77.2287 -26.4397
-28.8414   16.102  18.8221
-33.0177   53.953  11.3985
 1.53339  79.7487 -25.8958
-52.2775  69.4873  -41.174
 56.1809  82.9547 -33.3363
-17.2342  7.86091  26.1051
-10.1221  84.8189 -8.04076
17.2789 80.7464 11.0585
-24.5816  11.5552  24.9164
-28.1058 -1.15583 -2.18001
-10.1321  21.5941   29.856
-45.5845  49.8752 -9.72914
-27.2319 -16.6164  2.57745
-5.64967 -11.8836  56.1982
 14.427 31.4422 1.64632
-29.5487  -44.379  23.3868
-0.603262   56.2442  -42.8368
  59.777  63.0456 -23.8652
-32.7752  -48.406  24.3929
-2.99283  68.8965 -34.0463
-17.7483  86.5978 -23.7647
24.4352 16.8086 11.6679
-3.78546  86.2389 -10.1582
 -4.51189 -0.541837   47.8299
 43.3468  72.2327 -17.9035
-32.8955     4.26 -1.19079
-38.9323   58.318 -21.5847
 4.41961   57.304 -17.0787
-23.4251 -26.2792  4.33003
 15.1043 -44.8683  18.8859
 9.53446 -0.80798  7.80127
 33.2154 -46.3777  14.1705
 -15.128  70.4648 -19.6718
-3.36578  65.9956  38.7257
 12.4233  69.9363 -22.3927
-49.6745  59.7476 -32.2047
  10.66   40.09 32.1197
-38.4511  48.2287  4.72438
 48.6379  81.2767 -24.7061
16.5109 80.9924 9.05518
 28.2612 -14.6883 -1.22745
-29.4964 -17.6451  1.32542
 19.8157 -53.5285  9.74297
 5.12661  56.2982 -37.0582
4.03062 20.8091 30.8225
-30.0568 -1.58844  21.7443
4.25002  50.658 38.0532
27.0108 -49.652  1.7731
 4.41503  31.6513 -8.47178
 27.2282 -32.6661  27.2605
 24.0826 -46.0883   27.837
 19.397 78.6804 13.5751
20.3943 77.8207 15.5864
 50.8392  66.0379 -25.8667
15.8158 82.6028 15.4316
-6.84162  69.2955  36.3575
9.77383 33.0376 31.4346
  27.576 -8.92496  18.2949
-35.7035 -44.9485  4.04093
-14.8373  23.0459  27.3412
 -4.6553  34.5717 -8.77395
37.6624 -48.857 9.62138
 57.0638  70.4349 -35.7446
-8.59085  86.5738 -8.18636
15.9652 23.9785  5.6983
 18.4579 -30.5432  28.0132
18.6216 69.1125 -7.8616
-55.5084  56.3736 -12.5582
-28.7549  48.4964  11.6645
 12.5553 -26.4108  18.5661
18.6084 25.0494 12.7726
-39.6869 -38.3859  11.4548
 -51.758  80.0388 -39.7152
0.747145   40.159 -11.3685
15.1301 -25.082 23.3366
-55.1588  69.6477 -52.7351
 9.57493 -2.80828  14.2146
 -43.885 -44.7838  12.6198
-55.6251  52.6403 -18.8269
 46.4947  49.4714 -9.18146
 18.7474 -33.7525  28.8087
7.95842 67.9175   36.59
-37.6912  7.74555  8.45906
-33.8295  9.35078  2.97164
5.65131 54.3465  38.442
-41.4337  65.7058 -11.2744
 16.3962  51.0067 -11.9306
11.0978 49.8534 35.6586
 20.4611  40.6568 -1.51986
 17.5656  62.1644 -10.0105
-20.9154   39.004  19.8542
-30.674 57.8405 12.8198
-0.42097 -2.22034  32.3528
  32.896 -17.9023   7.5736
-20.7637 -28.5771  10.8641
17.0294 10.2916 24.2913
-37.9708 -2.97678  15.3909
 17.9387 -8.55553  19.5439
 16.7555 -33.1412  27.4832
-19.5435  80.6215  17.2709
  34.304 -14.9619  3.81412
16.2006 58.1591 34.3238
-35.3179  51.0909 -12.7173
-7.84338  56.1799 -14.4021
21.8826 8.48111 24.5168
 34.4382 -8.08821  7.99502
 56.8008  71.2432 -36.2534
-4.50955  87.8374  20.3281
21.5732 19.5421 13.4657
-38.6097  -46.315  0.96799
-10.7886  80.6174 -12.7158
32.1919 8.34124 8.60165
-21.2871 -29.5208  13.7223
-40.8553 -4.21597   8.7155
-40.7873 -31.8773  17.1098
 60.4288  73.4259 -21.6474
-23.0736  56.4133 -11.6589
11.2898 47.1653 34.7173
2.14957 41.0484 33.9442
 13.3718 -28.3343  21.4935
-16.0217  83.8925  7.62881
23.7834   41.53 14.4639
-37.3419  64.5353 -12.4516
 22.1654  61.1434 -8.48741
-33.424 1.54918  21.135
-18.4286  91.3094 -23.1441
  24.156 -50.6826 -1.47998
-4.98899  56.5837 -34.9296
-0.327429   1.44245   41.9747
 -53.608  68.8018 -13.8559
 29.1894 -13.7461 -1.70929
 22.5222 -1.71765 -2.35337
  21.0647  -10.1242 -0.451965
-4.41458  88.7475  16.4824
1.18917 27.1373 32.4865
-11.8501  85.6785  2.39043
 24.4969 -1.29823  23.0286
39.7035 46.6989 2.60794
-38.5189 -53.1394  4.05209
-42.0363 -52.7759   7.3176
   45.87  59.3306 0.252192
 47.1527  63.0526 -1.96413
 12.6622  34.0744 -7.15799
 11.847 85.8097 8.24032
 52.4104  70.1965 -27.3164
-35.2186  60.2285   9.2782
30.3172 57.8039 14.8787
-59.7904  56.5309 -19.2789
  56.469  81.7559 -21.7996
 -48.917 -47.3597  7.75826
-17.3257  15.4771  0.59034
   -62.9  63.8888 -37.8643
0.475447  54.1665  -35.235
-32.1618  12.4092  20.0045
 15.0667 -44.8861   27.722
 57.8507  77.0859 -37.0212
-26.6205 -7.16326  19.8004
-60.8149  65.8788 -29.8229
-20.4927  52.4284  32.4277
-34.5086  63.1226  7.34186
-13.8327  86.5426  12.2844
-3.6812 39.2493 33.6123
21.9061 -19.302 3.44059
-6.08966  60.4037 -41.8689
26.0883 57.8624 18.0412
-15.6543   89.611 -25.4802
 3.75436  35.1558 -8.56724
 -20.4779   36.0135 -0.470147
5.69821 2.40836 13.0777
 6.69081  60.2216 -23.7156
 16.7279  92.2157 -26.9754
-1.92106  81.6453 -23.3848
9.82818 86.3214  14.986
-11.8634  51.0996  36.7237
  19.292 -45.0156  29.4757
 22.6472  45.1367 -1.86077
  -7.67351    11.8289 -0.0999015
-48.8074  60.7289 -31.7455
 32.9435 -14.7888  8.35893
-39.5338  51.3138  6.46135
 16.4185 -2.09233  22.6874
24.7649 71.3389 12.2086
3.46528  56.021 39.1484
  29.6605 -0.721624   19.8819
-46.4011  61.8222 -1.54915
-0.754048   44.0153  -12.0986
 -30.9356 -0.117996  -2.36937
-4.42438 -3.74827  36.1766
-58.7139  71.5972  -24.415
-29.4419  47.1714 -5.19048
-43.1167  60.8746  1.37185
-21.1611   75.898  6.53933
 18.5533  37.6399 0.301357
  31.16  50.133 13.4603
-0.845559   24.7272  -6.71265
-17.6788  97.0051 -27.4809
   32.433 -0.518549    1.7973
 -16.7639   33.5999 -0.314159
6.43762 88.0524 14.7554
-38.8295   55.791  -17.676
 -26.3325   -7.6537 -0.661337
32.3255 -29.647 21.1748
 17.3012 -12.9547  17.1619
-50.2786 -49.2555  9.44953
-27.1088   7.3766   25.221
-23.2465 -30.2654  6.65705
20.0192 94.5123 -22.928
-24.9273   73.012  5.00346
-18.6368  39.4589 -9.23945
-22.7781  69.6405 -6.03805
 40.2685  68.8517 -13.9237
6.46812 2.99509 19.2593
 18.693 73.8237 27.0194
 35.3343 -49.7486  1.01827
18.4341 29.5324 16.3148
 -9.4651  71.4277 -28.2819
-4.44438 -6.14438   46.792
 23.6552  58.4458 -6.37103
 57.1978  61.2583 -25.4499
-47.5774  51.1008  -3.4356
-47.3191  52.1094  -2.4399
12.4787 24.5315 27.8406
 7.06624  36.3338 -11.4089
-40.7305 -42.1766  12.7026
-13.5204    69.47  34.6341
-55.9339  78.1352 -42.2345
  17.831  58.5729 -9.98771
13.4417 78.3808 -20.262
-4.05002  6.28521  1.23949
13.3019 19.3728 25.0905
-7.71017  69.0245 -32.0379
 -38.606 -4.83573 -1.41098
-13.0588  86.9893  12.5166
 -23.488 -8.35342  3.13866
 -37.2855  -15.3909 -0.137792
 14.8322  40.6357 -10.6671
-62.9462  65.3642 -20.8422
-10.8761  64.9711 -16.3036
-5.72865  45.8729  37.3982
-49.2192 -48.4207 -1.90535
-58.3407  66.5301 -52.1322
 23.4473 -4.24056  22.2329
-34.0695 -31.0418  22.7565
-48.9598  71.1313 -16.3478
 62.5698  69.6246 -33.8573
-15.4021  83.0601  18.8676
  -55.39  79.8081 -38.4269
 24.9168  47.9685 -4.56997
4.07019 87.8927 19.4497
-40.0604  65.0449 -11.8138
-17.7241  19.7921  2.49086
 38.5379  62.3885 -11.1777
-0.862669     88.97   18.5084
-61.6381  59.7956 -39.0222
 -12.425  42.1071 -14.5497
 -48.5667  -53.5581 -0.537633
-53.7428  74.0185 -29.1994
-35.9112  54.3061  10.1728
-19.6525  80.5038  15.7845
-5.81385  41.5523  34.0458
11.4728 39.0456 30.5691
 18.9112  41.5237 -7.02946
  -22.092   7.25232 -0.988394
-47.0254  72.9441 -28.4638
  15.8752   6.77693 -0.490766
-55.2381  63.4695 -43.7258
-7.29008  59.2484 -30.9433
-22.3538 0.376454  24.6453
  34.2506 -0.880129   4.21574
-33.1681  46.0372 -3.99284
 -41.528 -8.02339 -1.04961
-12.7347  82.4925 -18.2461
 25.5098  64.0804 -3.20059
0.763541  89.0358 -4.05163
  48.063  59.4977 -24.7593
 22.794 52.8577 24.6353
-34.5693  45.9435 -3.09538
-40.0999 -32.8802  12.8625
   1.98517 -0.0311604    30.9768
 -49.044  50.1537 -21.0807
 22.5577 -31.4128  8.43557
-27.5591  45.5415  14.2012
-1.23977  87.4131  22.2334
-22.2033 -18.3126  10.1876
 16.3445 -21.7439   7.9653
-22.6331  1.66465 -1.62247
 36.1482 -50.8281 -1.42653
 14.0028 -39.6419    22.85
 39.1632  55.8803 -15.9064
-27.0366  44.6533  3.76167
-24.2154  15.0046  3.74568
 33.3261 -16.8022 0.956406
   -25.04  -6.50144 -0.563153
-11.0512  63.1275 -26.9398
-12.5006  45.2279 -15.0822
-41.7677  53.6334  4.80711
6.16089 2.98556 9.24245
-41.9202 -52.9471  6.45344
  11.454 -3.22175  6.91757
-16.2339   40.682 -12.4093
 49.5243  86.3805 -26.2787
20.5916 38.5165 7.54157
-17.6729  -7.2443   13.009
-17.9477  15.6375  25.5115
-27.4491 -43.5506  22.5872
-5.68101  32.1684 -8.58168
-7.95675  60.2224  -31.545
 18.6682 -27.6676  27.0627
 47.8654  55.6118 -23.5406
61.0664 66.5042 -8.4117
35.7628 53.2191 11.8507
-16.7995  80.3017 -4.47048
 13.7197 -35.4485  16.8168
 30.5354  45.8908 -4.02258
 -24.108  8.05963 -1.01831
-24.9298 -22.6442  19.5616
 25.6803  7.40037 0.565238
  15.037 -10.9779    8.085
-23.0307  38.6509  3.63482
 35.5356 -51.9225  15.2462
-5.02515   61.476 -42.3306
-9.90579  61.0292 -16.4586
-11.2967 -1.67887  13.7924
 53.7978  69.7288 -29.3745
-6.12178  85.6997 -16.0487
7.30015 4.28372 22.2173
23.7429 68.8567 22.0957
4.61483 88.5483 3.80102
0.893907   58.217 -47.0963
-40.5798 -13.7531  12.1927
-23.4975  76.4383  16.3563
 53.4213     54.6 -21.0734
-28.5731  52.9731  -9.8583
 48.0762  49.6231 -10.6831
 18.0018 -53.1191  17.2655
 33.0493 -24.5766   19.691
14.6261 64.0304 34.7595
-48.7385  60.2738  -6.1766
 29.5572 -32.3522  10.3899
-3.93879  5.80338  34.5404
-28.8344  69.0594  4.55172
-10.3071  79.8456 -25.3902
-2.54982 -6.39794  49.0233
 24.2568 -25.1405  3.70923
-36.8728 -52.9063  8.73888
-30.5983 -41.0715  22.7772
30.5431 7.12208 3.75051
-35.4839  5.18103  19.1838
-0.444197   23.9895   31.3053
-14.0124  85.0776  18.2511
 5.80558  53.0627 -12.6097
  42.359  68.2151 -8.98877
28.8915 12.6866 7.85491
 51.9351  88.6447 -29.1728
-14.4535  95.1571 -28.7485
-31.2596 -48.1448   6.3962
-23.5754  5.65172 -1.68955
 21.6449 -53.5288  6.57336
 19.4019 -52.7337  31.4372
 -3.73098 -0.285693    30.624
  -20.467   76.5817 -0.370674
 8.57301  81.4324 -25.9946
 -20.6293   6.04395 -0.498385
 4.09102  44.2877 -14.2687
-5.84997 -3.14447  40.1513
 17.5963 -7.94694  19.5804
-1.14262   74.624 -30.3663
 14.6499 -49.4909  18.3965
-26.3231    44.03  2.83101
-5.51396 0.221443  33.3228
 33.2674 -47.4073  16.8601
-1.77063  62.8888 -41.8311
-2.1328 7.23001 13.3632
25.4265 44.6223 2.41771
-22.7041 -35.2076  16.7468
-54.5492  54.0049 -29.7783
  10.343  83.0013 -25.4734
 -14.3593   30.2478 -0.850476
 -18.257  60.3575 -12.2542
-14.7954  83.8333 -22.4115
-13.6924  2.02996  5.36953
 31.7933 -5.20735     15.8
  21.361  68.3441 -2.49012
-9.20466  53.7653 -12.0746
 32.9399 -53.7931  13.1474
-15.9788  37.9868  27.1652
18.9297  19.377 20.8923
20.9339 65.5031 28.3506
-34.0657  11.1853  19.3674
 16.2698  11.0884 0.708423
-21.4808 -20.6862  11.3077
-3.41966  54.6306 -16.1759
-40.4713  -1.0837  10.4878
-26.9891  69.8548  18.6628
-34.6178  46.3613 -4.42412
-51.1995  80.9608 -44.9954
 36.2208  52.2627 -9.49799
-18.6183  34.7996  21.5781
-1.88784  67.5676  37.9131
-2.47004  30.3434 -9.24601
-39.3672  61.6573  5.10952
-5.7374 64.2989  38.664
-11.0889  28.1746  30.5629
 18.9154 -4.99278  22.0969
20.1917 22.8153 11.3228
-25.2539    10.98 0.536411
16.7109 66.7372 32.5106
-48.2171 -49.2751  2.36523
-41.3217  60.7132  3.81996
-22.1201 -8.45751  17.4516
  26.898 -31.9775  27.4938
  8.7092  63.3471 -19.2845
-40.5475 -48.8726 -4.95404
-32.4263 -23.0656  22.5229
-43.7395  66.9411 -25.8383
-1.00426  68.1343 -34.8608
-52.4351  74.4897 -48.5523
-40.4679 -3.48671  3.78067
11.4676 25.0186 1.25588
  23.7912  -50.4306 -0.842494
  57.329  56.1052 -6.31156
 59.1413  56.2556 -11.0846
-16.7439  78.6302  24.9455
1.80793 54.2057 -15.651
23.1077 -44.565 27.8794
 -1.2872  54.2322 -17.6494
-40.7562 -3.18316  8.56355
-49.5878 -53.2234  -5.0225
-5.26795  90.2776  10.8196
1.00221 78.2245 34.0827
 51.8511  59.5331 -26.7839
-37.8467 -50.8583 -4.03066
  12.2894   83.3735 -0.866393
-28.5791  60.6133 -8.84661
 6.16435  79.1347 -24.7194
19.0785  35.605 11.8382
-1.15827  16.5079 -4.75448
31.2409 -12.145  -1.088
30.2368 44.5811 0.40586
 13.1515  67.8836 -14.8532
-23.6774 -18.9024  5.24732
 15.4945 -12.8761  11.3253
25.6545 57.1826  18.861
  60.181  77.6868 -34.8375
 13.6289 -34.5518  22.8077
9.77043  86.779 6.51428
-6.16947   67.605 -32.9209
-11.0455  64.6232 -15.6606
 61.1161  68.2449 -14.2294
-5.11458  83.7019   28.248
44.5219 51.9752 -18.507
-10.5023  84.6927 -29.2385
-38.3201 -5.38245  13.6796
 8.85536  65.2789 -28.0287
-11.9223  77.5858 -21.3311
-3.26203  87.1979 -8.82397
-29.4161 -6.49551 -1.97862
 30.7696 -36.6754  23.0102
-6.58994 -9.61732  55.5003
-22.9157 -52.2721  19.3007
-20.4163  30.7727  16.0709
 -29.071 -43.8063   9.9624
 16.8454 -34.8017  11.6537
-12.7145  79.5205 -7.39036
 -32.548 -26.1538  2.61735
-40.1072 -33.6521  9.16162
 10.0778  80.0737 -7.30002
-20.7961  52.7978  32.1394
 54.6461  69.0767 -5.19149
 16.5178 -19.9028  21.2036
-15.3441   24.708  27.1268
 42.3623  58.6971 -16.1782
-21.5062  24.2872  10.4286
 7.72149  66.7936 -30.5741
7.68742 88.4752 8.91474
 42.9767  51.2213 -16.3153
39.3337 62.4365 1.59326
-32.9529   66.232 -1.14581
  17.4226   6.72385 -0.733264
14.0213 22.5955 2.79651
 -25.212 -15.4812  13.0455
-36.0917 -14.0523  17.0073
-34.3943 -8.52417 -2.04079
-29.7484  59.0546 -9.73086
-37.8365  65.7887 -9.63399
 1.60449  65.6981 -37.9906
4.05221 20.3357 30.7537
-20.5111  39.4684 -6.04583
12.0516 76.5614 -11.054
-11.5492  70.5078 -26.1922
28.7538 -53.603 7.45208
 -33.8682 -0.591962  -2.49688
 15.3861 -7.72527  3.13415
49.5398 71.4694 -7.5804
-31.2943 -45.2316  23.9472
 20.9192 -53.4702  5.14871
-27.4319 -15.8949  17.2447
 11.6037  77.9305 -9.17262
-33.9686  13.0006  9.65444
2.68759 5.63468 20.2592
17.9035  34.185 4.68496
-13.3969  84.6929  19.8911
 56.5627  78.2732 -39.2788
 20.1211  89.7653 -21.5325
-27.3846  67.9556 0.421909
-5.16647  56.8297 -34.3506
-45.6992 -53.2298  1.68328
-41.8262 -51.4915 -8.62434
-12.8949  42.9899  34.4828
-41.9607 -24.0183  8.09775
7.43258 4.18277 5.00807
-25.8154   -45.77  23.6307
21.6011 10.0488 23.8064
8.38728 86.1668 20.9935
 5.64013  83.4207 -9.07265
-53.4507 -52.4065  3.23736
-29.7966  17.0625   14.132
-42.5582  64.2143 -1.82348
-11.8505  35.7018 -10.7823
-54.8874  68.3262 -50.9037
 23.1054 -4.32355 -2.49053
 25.6637 -21.9631  25.8803
-15.1191  36.5297 -9.47359
  14.4747   79.5276 -0.270353
 13.0501  55.8881 -11.0888
17.8501  26.745 11.3229
 31.6811 -46.7391  5.39358
12.8376 3.56946 23.2529
-20.3596  18.9241  2.85491
-28.4626 -38.8536  22.6719
 46.7486  67.4233 -20.3533
-61.5188  61.8055 -17.3712
 60.9821  67.5752 -24.1491
-36.4194 -3.61234  16.8619
 -10.046 0.275563   14.257
6.92535 5.58428 2.96997
  49.071  59.8364 -1.57743
 2.58766  25.4154 -6.47118
17.7864 57.8538 32.9156
1.33415 4.79286 8.43632
-25.124 12.5476 1.52635
 -6.03451   89.4025 0.0793477
 48.2696  69.8168 -22.2426
6.63975  63.231  38.291
-11.3073  24.9835 -1.70193
-20.9606  2.35992 -0.96941
-45.5601  54.7904 -24.3618
 -62.507  61.0669 -43.8544
-57.217 71.5391 -48.031
-9.81097  85.6671 -29.3727
10.8407 29.1302 -1.5247
 15.3266 -30.8947   25.423
  20.302 0.352378 -2.20952
 12.7925  70.0185 -20.3914
2.63101 2.87626  35.651
 19.2617 -35.8523  11.1435
-22.1881 -20.2041  6.53148
 0.4644  53.183 38.5147
-26.1993  45.0023  17.5774
 -60.265  65.0585 -31.1757
20.0024 75.5556 8.81234
-9.17319  86.9769 -7.32029
 62.2487  74.7903 -29.8024
31.2121 -30.964 14.0519
-23.1839  69.2389 -6.56389
4.61806 73.1556 36.2587
-9.12648  3.81269  8.76626
-2.74183  52.0907 -13.3955
-3.33675  18.6022  30.3026
-5.77904  10.4357  29.1571
-29.1051  66.6823  6.81339
-7.81236  60.8057  38.6111
 48.9326  68.5596 -5.27279
-31.8055  46.3748  4.01837
-58.6495  62.6621 -12.4122
22.7404 40.1767 19.8912
-9.12961  79.8191  30.3018
-7.97985  87.0598 -17.5524
 16.9757  37.5463 -4.50214
 33.6521 -21.1689  10.2096
26.4648 44.8441 6.83713
 33.2714 -24.3513  16.1764
  23.965 -29.2962  6.01672
 45.7319  57.1179 -20.0156
 16.3621  85.6891 -21.3438
 12.6709 -52.4311  25.9858
-34.1103 -36.8102  22.7778
12.7228 3.73826 0.55007
-4.7173  6.3274 2.34383
-4.40118 -0.26298  46.7022
-2.38796   63.217 -39.6324
  8.2004  87.3754 -24.0846
34.7363 48.8583 11.1467
23.8695 41.6718 12.8574
-5.71694  47.7142 -14.1752
 12.0826  78.7203 -21.2895
25.4827 58.6714 20.1453
-18.6508 -5.91464  7.99633
-59.2673  60.2684 -12.9792
-21.8461  9.40553  25.5151
23.8315 14.9139 17.3347
 22.5236   50.366 -6.31283
-2.30441 0.963003  44.4087
4.32707 57.0071 -17.708
-42.6901  -18.783  10.4177
0.376212 -5.06011  45.1898
-23.5085 -16.6136  11.7359
15.6133 67.7317 -14.425
 6.95175  84.5381 -18.3886
21.5601 39.7497 14.4249
-39.459 54.2577 -18.645
 5.47646  56.2432 -29.9309
 39.6653  54.0497 -12.9293
 16.5422 -50.5689  15.1602
15.7865 4.79574 24.7407
-10.3836  59.5444 -14.3927
 27.8108 -0.22495 -1.51854
-24.1556  41.6382  17.7002
  18.2494  -3.75567 -0.855135
-18.0279  27.3917  24.4704
35.4272 63.9155 4.38938
33.9472 51.8453 13.2577
-45.7788 -47.1987  3.93336
-34.5824 -47.8417 0.263339
-36.9125  8.86953  10.7406
-39.5962   48.145 -9.08289
 47.5805  70.2962 -6.96039
0.357379  38.1147  32.9599
-28.2388  66.3626 -1.15462
-57.9709  77.8432 -38.7357
 15.1035  63.3714 -9.69232
-26.1016 -18.2654  18.4733
 34.1226 -53.7977 -0.32395
-21.4401  62.5678  31.5004
-40.7742 -53.4316 -3.56576
    18.7434     74.4242 -0.00964034
-52.0273  56.0006 -10.1491
16.6827 35.0303 2.34677
 6.37227  83.4943 -14.1136
 -11.167  55.3031 -12.6981
