 0.185182  0.945754 -0.290817
-0.205791   0.51754 -0.534374
0.0327116  0.326005  0.122094
  0.31152 -0.627341  0.742497
  0.211339 -0.0327329   0.915302
-0.283909  0.215253 -0.364704
0.114034 0.106173 -0.42646
-0.0316803   0.401352  -0.631687
-0.321545  0.374183 -0.447934
  0.370555 -0.0891816   0.373883
 0.122679 -0.116134  -0.19156
  0.13115  0.423809 -0.611528
0.0775128 -0.413101  0.879642
-0.317338 -0.151066  0.803229
-0.198462  0.941641 -0.248815
 0.316114  0.596596 -0.256636
 0.141482  0.136751 -0.178759
-0.139595  0.657031 -0.489985
0.114927 0.293172  0.31868
-0.260097  0.564044 -0.133329
-0.291641 -0.410528  0.358063
 0.280671 -0.721142 0.0306304
-0.283115  0.504279 -0.428052
 -0.183214    0.35247 -0.0279892
 0.160139    0.0352 -0.150509
 0.385284 -0.383822  0.022598
-0.146004 -0.493711  0.150103
 0.127782  0.183888 -0.611875
 0.379005 -0.118601  0.333017
-0.336597 -0.399084  0.834345
 -0.194968   0.195038 -0.0142562
-0.271263 -0.471943   0.63234
  0.25672 -0.640485  0.675217
-0.144019 -0.210534  0.946263
-0.175412 -0.149232 -0.166716
  -0.34638  -0.263478 -0.0694667
-0.169497  0.101218 -0.116079
 0.201661 -0.721671 0.0801059
-0.293638 -0.402245  0.894175
0.110585 0.120377  0.87236
 0.100274  0.155463 -0.581979
-0.0276286   0.317432   0.239855
-0.0317406   0.102169  -0.403969
 0.289645 -0.128729  0.852963
-0.202359  0.182573  0.443359
-0.255025 -0.199007 -0.124225
0.0345764  0.489119 0.0556187
 0.215054  0.514389 -0.531014
0.170723 -0.68858 0.689441
 0.131709 -0.706629  0.753855
 0.213817  0.157564 -0.555917
 -0.354894 -0.0499742   0.434614
-0.350728 0.0173637   0.24408
 0.269083  0.165417 -0.460464
 -0.172669   0.146109 -0.0994984
-0.321073 -0.389648  0.537277
-0.184105 -0.247592  0.930009
-0.26266 -0.71933 0.070045
 -0.27714 -0.160133 -0.113683
0.360055 -0.25113 0.511967
-0.261198  0.112573  0.466155
 0.137324 -0.690648 0.0569845
0.0791706 -0.598492  0.824888
-0.173849  0.279753  0.294062
-0.0331848 -0.0725867   0.997821
-0.312779  0.759388 -0.257607
-0.156851  0.227411  0.421041
-0.390508   0.75492  -0.26354
0.224604 -0.67957 0.682326
-0.0491528  0.0725681  -0.238739
-0.221924  0.244274  0.268978
 -0.236914   0.462317 -0.0622379
-0.0592017   0.238768   0.463165
-0.217482 -0.168834 -0.143907
-0.126296 -0.560641  0.113398
 0.0156762 -0.0911429  -0.220627
  -0.280279 -0.00944333   -0.069673
  -0.1765  0.699385 -0.461184
-0.128469  0.139366 -0.552872
0.00414887  -0.137977   -0.21216
-0.310423 0.0496735  0.431458
 0.164715 -0.277777 -0.125128
-0.241972  0.332494 -0.123908
 -0.10142 -0.467445  0.640123
-0.132301 -0.651877 0.0954676
 0.277217  0.568362 -0.339178
 0.324403  0.347836 -0.484762
  -0.360558 -0.00280149    0.193389
 -0.381715  -0.414702 -0.0228596
 0.379496 -0.212506 0.0838644
 0.249298  0.250077 -0.624652
 0.246579  0.658642 -0.420035
  0.377203  -0.352808 -0.0298203
 0.093954 0.0605654  0.929153
 0.307491 0.0883254 0.0800238
  -0.113188 -0.00850526   -0.191421
-0.341051 -0.330558 -0.087152
  0.194467   0.589159 -0.0824887
-0.339356  -0.27357  0.724844
 0.230265 -0.691819  0.879242
 0.109753 -0.589291 -0.019025
  0.30098 -0.406815   0.55554
-0.0513892      0.454  0.0556313
-0.335862 -0.382367   0.68852
0.0756067 0.0845286 -0.228046
-0.337507 -0.468308  0.838772
-0.459802  0.731434 -0.231702
0.255892 0.115885 0.486547
-0.148343   0.29402 0.0575474
 0.369397 -0.297639  0.369728
-0.220665  0.152891  0.486363
-0.0776054  -0.413634  0.0397556
-0.184591 -0.064084   0.94115
 0.244997 -0.153948  0.901203
  0.343508  -0.155495 -0.0356181
0.0608933  0.824882 -0.246292
 -0.216967  -0.641718 -0.0994824
-0.141091  0.112388 -0.466921
  0.21329  0.934609 -0.259394
-0.241137 -0.436801  0.234027
  -0.3438 -0.460684  0.164397
  0.29907 -0.638923    0.8558
  0.38141 -0.288215 0.0506846
-0.0264644  -0.493406   0.581344
-0.317195 -0.566239  0.716447
 0.229987 -0.388335  0.918149
-0.323005 0.0406317 0.0504958
-0.0577139 -0.0567462    1.01934
-0.320771 -0.547714 -0.102277
-0.0465447   0.558481  0.0307435
0.0964543   0.12673 -0.249255
 0.154587  0.800707 -0.216315
 -0.262281  -0.688589 -0.0662667
   0.309674   0.0274936 5.25105e-05
   0.338405  -0.0616376 -0.00555724
-0.242501 -0.433407  0.522672
-0.158779  0.788233 -0.371267
 0.228511  0.682358 -0.148913
 0.187588   0.28175 -0.654518
-0.217055 -0.433255  0.262976
  0.156868   0.622844 -0.0808856
 0.106216  0.702556 -0.474858
-0.366771 -0.320089  0.322169
 0.120515  0.117079 -0.204469
0.0649779  0.103711 -0.401835
0.00536597   0.448688  0.0589631
 0.136544 -0.247709 -0.142765
-0.351091 -0.634605 0.0663394
0.0196665 -0.225143 -0.179692
 0.354044 -0.330723  0.466305
 0.182997 -0.180844 -0.156056
 0.187007  0.199424 -0.202082
-0.11771 0.275942 0.357852
0.328863 0.277355  -0.4975
   0.351517 -0.00934212     0.33852
 0.283917 -0.411532  0.319656
-0.340534 -0.365431  0.745185
 0.332752 -0.517587  0.744246
 -0.28033  0.489258 -0.210182
-0.255086  0.758196 -0.210151
 0.449702  0.664631 -0.205485
 0.373742  -0.52212 0.0820665
  0.269758 -0.0170005   0.851227
-0.0672019   0.757835   -0.44837
-0.299169 -0.664199   0.81828
 0.201147    0.3981 -0.616913
-0.312148 0.0278296   0.62589
 0.368498 -0.114432  0.419212
-0.0019638   0.802255  -0.158785
0.259969 0.146366 0.364788
 -0.225218 -0.0305509  -0.127134
-0.377993 -0.547384 0.0431305
 0.359037 -0.375807 -0.070854
 0.294196   0.19278 -0.469077
 0.144006 -0.504774  0.447192
 -0.342291 -0.0316683   0.552408
 0.131747 0.0843914  0.894962
-0.206748 -0.136303  0.927711
0.295934 0.272037 -0.30803
-0.033845  0.300203  0.315934
-0.094941  0.298432  0.313196
-0.101835 -0.553482 0.0130145
0.0862573 -0.574106  0.864101
0.0716152   0.13652  0.870472
-0.216733  0.145018  0.612977
  -0.250526 -0.00809051     0.86736
0.312242 0.224231 -0.52211
0.00809035  -0.530194   0.468321
 0.346408 -0.297913  0.613265
 0.334695 -0.358592  0.821735
0.157684 0.116677 -0.40583
0.0668965 -0.186035 -0.194319
 0.386228 -0.182732  0.218403
 0.101638 -0.623288  0.870887
-0.248281 -0.415137  -0.11997
-0.0345137   -0.19727  -0.193225
-0.272902 -0.691786  0.124237
-0.183739  0.168988  0.648583
 -0.162238   0.626614 -0.0885473
0.0116535  -0.22331   0.96271
0.165002 0.174882 0.705006
 0.177963 0.0548863  0.889324
-0.329714  0.019848  0.404792
0.0274885  0.257478  0.418592
 0.223566  0.718181 -0.392833
0.00823831   0.281833   0.361809
-0.386375 -0.127254  0.241178
-0.295105 0.0669039  0.471533
-0.245482 -0.153552  0.900863
  0.05708 -0.466651  0.641332
 0.311095 -0.642687  0.134254
0.0365729 -0.405392  0.811397
-0.225577  0.236758 -0.629625
-0.159586  0.123612 -0.379138
-0.262445   0.66883 -0.363041
-0.066968  -0.22352  0.958886
  0.18236 0.0856868  0.859671
 0.239247  0.263725 -0.197404
-0.0771194  -0.395266   0.886306
 0.309613  0.405795 -0.465019
-0.121379  0.415848 0.0319855
-0.173208 0.0557074 -0.134852
0.354783 -0.23762 0.576909
   0.256147   -0.720231 -0.00492032
 0.285867 0.0668203  0.637204
 0.285792 -0.588564  0.896875
 0.417693  0.666665 -0.270355
 -0.151165  -0.412276 -0.0923086
 0.304065 0.0355545  0.664712
-0.122192  0.903388 -0.249587
-0.0113213   0.446282  -0.599859
  -0.156096     0.52634 -0.00367164
-0.0870167   0.815575  -0.221154
 0.343241 -0.205683  0.697201
 0.224298  0.619606 -0.117192
 0.186039 -0.734346  0.793168
 -0.239418   0.516539 -0.0910849
 0.384887 -0.180387  0.167565
 0.298932 -0.422243  0.892574
-0.150241  0.244694  -0.64928
  0.295211  -0.664274 -0.0778899
-0.221858 0.0919622  0.804095
-0.0583469   0.109007  -0.368169
  0.33036 -0.409912  0.690703
-0.0121425   0.230094  -0.648024
 0.195224  0.237812 0.0388187
-0.282862  0.125398   0.32734
0.0741421 -0.218979  0.959276
-0.213505  0.664777 -0.465758
 0.315706 -0.581768  0.157548
-0.122488  0.873809 -0.295522
-0.262295  -0.65656  -0.09384
  0.230854 -0.0156658  -0.116843
0.135523 0.196984 0.649844
 0.318989   0.23133 -0.499655
 0.198746  0.767124 -0.313907
 -0.14134  0.152792 -0.222159
 -0.304076  -0.224874 -0.0990321
-0.150659  0.940168 -0.266774
 0.382626 -0.232963  0.115615
-0.310303 -0.287266 -0.101057
-0.121184 -0.668399  0.717925
-0.347855 -0.353211  0.465919
 -0.369338  -0.319741 -0.0411773
-0.213241 -0.633481  0.918162
-0.317818 -0.317706  0.848749
-0.143697  0.045624  0.916406
 0.307313 0.0641639  0.391524
-0.203841 -0.723019  0.847668
  0.38126 -0.405686 -0.022368
 0.377713 -0.328519  0.138801
-0.299145   0.42097 -0.237474
 0.216319  0.890055 -0.246969
0.331015 0.328069 -0.45102
-0.0787348  -0.145294  -0.201661
-0.234883 -0.233965 -0.128595
 0.157342 -0.642586  0.136435
  0.370367 -0.0330595   0.175063
-0.0400022  -0.122516  -0.213084
0.0529663  0.828336 -0.299899
-0.0710006  -0.514648   0.761626
-0.179865  0.758675 -0.408392
0.0012522  0.832626 -0.254836
-0.0519176  -0.448895   0.704758
-0.291366 -0.427306  0.220739
-0.195434 -0.427063 -0.110243
  0.20101 -0.448654  0.216896
-0.133762  0.137961 -0.302929
 0.383997 -0.139855  0.292581
 0.368147 -0.224014    0.4464
0.301484 0.124987  0.17801
-0.0119916  -0.349388 -0.0705976
 0.340536 -0.263391  0.710051
-0.161072  0.436176 -0.597118
-0.322152 -0.598062  0.758779
-0.376361 -0.119925  0.105651
-0.063436 -0.427067  0.854056
-0.160593  0.617906 -0.503354
  0.331685  -0.248404 -0.0839863
-0.154882 -0.338721  0.923714
0.0707979 -0.133583 -0.205744
 0.263633  -0.31208 -0.116723
0.0748361  0.622777 -0.511875
 -0.365497  -0.561646 -0.0458772
0.0953566 -0.424055 0.0156905
 -0.203049    0.55102 -0.0624716
  -0.10601 -0.0458222  -0.197043
-0.116316  0.185596 -0.614404
 0.318253  0.720747 -0.166043
 -0.108403  -0.459269 -0.0372705
-0.0353859   0.283297   0.358779
 0.304011 0.0087038  0.744959
 0.349167  0.656296 -0.142404
0.0601923  0.365421 -0.653642
-0.0689984  -0.523522   0.818167
-0.00143412    0.321795    0.204672
  0.324447  -0.333172 -0.0968272
-0.367283 -0.611035 0.0134041
-0.271808 -0.638109   0.68578
 0.335985 -0.521043  0.821123
-0.343566 -0.192758  0.699099
-0.147029  0.806335 -0.336522
-0.0982226   0.055225  -0.202352
 -0.360163 -0.0833851   0.461073
-0.179509  0.144969   0.77115
0.0901876  0.168285  0.815775
-0.459668  0.693827 -0.173501
 -0.36229 -0.194139  0.521703
-0.120415 -0.514566  0.104725
  0.373601 -0.0511418   0.141278
-0.314752  0.406176 -0.369263
-0.139739  0.220031  0.457097
-0.282905  0.324018 -0.213983
 -0.178061   0.228481 -0.0166791
-0.329601 0.0390111  0.336796
-0.201577  0.272008 -0.650552
 0.0345098   0.659134 -0.0249669
  0.15756 -0.508836   0.15745
 -0.24638 -0.449105  0.598551
-0.261547  0.756805 -0.258465
-0.0982235  -0.102192   0.973568
 0.305805   0.23045 -0.399232
 0.114616 -0.493068  0.328934
-0.0232264   0.406113  0.0494691
-0.0576754  0.0710152   0.932943
-0.115795  0.469441 -0.580378
-0.253291 0.0988163  0.696191
-0.360833 -0.105523  0.502468
 0.137014 -0.308639 -0.112374
-0.339896 -0.507691  0.787908
 0.115042 0.0257976  0.942089
-0.247219  0.715892 -0.345937
 -0.366258 -0.0250188   0.260229
 0.109068  0.800523 -0.385543
-0.133656  -0.28951  0.932857
0.0477495 -0.430653 0.0710213
0.270164 0.201435 -0.35821
-0.341579  0.760322 -0.224721
-0.324974 -0.111902  0.782916
  0.173322   0.220866 -0.0879996
-0.137809 -0.115148  0.959448
-0.110984 -0.638649 0.0389288
   -0.1665  -0.638832 -0.0776384
 0.190173    0.6963 -0.458647
 0.181547 0.0585806 -0.125238
  0.013685   0.676859 -0.0305246
0.342001  0.03667 0.241179
-0.336702 -0.464251  0.740692
-0.299994  0.239635 -0.573859
  0.118912   0.587251 -0.0177949
-0.0825644   0.205495   0.724855
-0.270087  0.219709 -0.594895
 0.340081 -0.351393  0.552369
  0.140975  -0.419855 -0.0852618
-0.113449  0.166557 -0.593318
0.289555 -0.63632 0.705849
-0.0635361   0.137517  -0.556773
-0.209899 0.0171282 -0.118538
-0.383373  0.666233 -0.144392
  0.21857 -0.391699 -0.115281
-0.171828   0.18498  0.525317
  0.343311  -0.101811 -0.0114564
 0.309723 0.0411762  0.497174
 0.044196  0.385695 0.0428173
 0.263794  0.561257 -0.449821
  0.366944 -0.0216186   0.228595
  0.343684 -0.0279767   0.483952
-0.337187 -0.350055  0.800384
-0.0329857   0.036145  -0.235588
 0.296569 -0.667938  0.759844
-0.235409 -0.564046 -0.119325
0.190052 0.284458 0.152629
-0.218161  0.154368 -0.544493
 0.0449254 -0.0161943   0.996087
-0.0322461  -0.458191   0.198595
-0.119531  0.210287  0.527802
-0.378497 -0.301577  0.143039
-0.00624869    0.248827    0.441317
 0.243685 -0.458514  0.207763
-0.0835838  -0.588988   0.854222
 0.220181  0.289756 -0.129213
 -0.19374 -0.488227  0.927334
-0.218341  -0.65564  0.667444
 0.343757 0.0247169  0.282066
0.199474 0.258318 0.298345
-0.365134  -0.15713  0.489715
 0.185326  0.232138 -0.131514
 -0.35314   0.71496 -0.159946
0.0333695   0.53148 -0.551312
-0.362355 -0.106509 0.0450807
 0.156666  0.789129 -0.371462
 0.152017   0.89615 -0.311962
 -0.34382  0.626621 -0.293821
 0.089361  0.108057 -0.476234
  0.135086 -0.0114899  -0.177374
 0.0564851     0.6946 -0.0635342
-0.308445 -0.461003 -0.114156
-0.303769  0.434621 -0.438396
0.00109502   -0.32629   0.904047
-0.19474 0.233617 0.355869
-0.130515 -0.592646  0.906697
    0.351654 -0.000466077    0.0940713
-0.374229  -0.38884  0.110626
 -0.366349 -0.0897492   0.411507
0.318961 0.317481 -0.33418
 0.119088 -0.658194 0.0417685
 0.307472 0.0800713  0.336393
-0.233772  0.141536 -0.475981
 0.327676  0.258864 -0.458276
 0.230239  0.722313 -0.170585
 0.343022 -0.303384  0.653568
 0.334089  0.643074 -0.315175
-0.274703 -0.416017  0.282236
 0.270593 -0.704359  0.778528
-0.152073  0.139647 -0.155894
-0.132348  0.778745 -0.412316
 -0.33101 0.0631665  0.214107
 0.327317 -0.586038  0.770709
-0.243738  0.146194  0.423479
  0.358211  -0.472918 -0.0794087
 0.255631 -0.428237 -0.119887
 0.298505 0.0553003  0.537958
-0.180465   0.86051 -0.225278
  0.101349  -0.468777 -0.0126686
-0.347019 -0.010787  0.378401
-0.151923 -0.467078  0.560182
 0.262988   0.41074 -0.569212
-0.311718 -0.404696  0.415765
 -0.349867 -0.0632108   0.593598
0.0131583 -0.442134  0.104635
-0.263511 -0.500386  0.195153
-0.167529   0.11769 -0.421936
-0.0525873  -0.294845   0.931583
-0.167077  0.182525  0.592369
 0.285826 -0.623106  0.166621
-0.184947  0.287053  0.231162
-0.346731 -0.014579  0.054993
  0.308482 -0.0204827   0.777869
 0.128783  0.632746 -0.502578
-0.270859  0.680602 -0.148596
   -0.11115    0.575122 -0.00535699
 0.218543 -0.653708  0.907879
0.0721083 -0.528054  0.839764
 0.210976  0.900673 -0.313701
  0.22829 -0.615293  0.657185
-0.132845   0.29758  0.293596
-0.263242  0.741505 -0.184209
 0.274047  0.516914 -0.459026
0.235486 0.233602 0.242986
 0.347849  0.606194 -0.258296
0.132158 0.311479 0.152761
-0.276363  0.167584  0.233202
-0.35005 -0.17172 0.662995
 -0.226719  0.0901705 -0.0594296
-0.12557 0.194472 0.708571
 0.307321 0.0526615  0.441103
0.0646009  0.261457 -0.661304
-0.0835158   0.428047   -0.61176
 0.223323 -0.726822  0.764529
 0.106716 -0.553438   0.68789
  0.138314  -0.533067 -0.0805417
-0.150048  0.890615 -0.222236
-0.280254  0.157659  0.123905
0.0314523  0.211384  0.739105
0.0335384   0.78124 -0.136384
0.0478884  0.274231  0.378154
  0.225318   0.336614 -0.0920555
 0.227931  0.322444 -0.644383
-0.441515  0.662815 -0.169836
 0.381053 -0.227326  0.316465
 0.100518 -0.665114  0.756257
0.251084 0.115427 0.538882
  0.112599  -0.440136 -0.0480404
   0.17018   0.249403 -0.0545101
  0.324709 -0.0604938   0.767574
 0.237585  0.285599 -0.640817
-0.00476612   -0.528456    0.391276
-0.188532  0.242281 0.0321946
 -0.346924 0.00356376   0.335918
    0.386 -0.122209  0.206765
-0.0428132 -0.0346336  -0.224204
  0.10331 -0.505968  0.511071
 -0.29876 -0.530326   0.67252
0.104934 0.210382 0.611558
0.0576116 -0.521554  0.380145
-0.0307622  -0.530339   0.432517
-0.132291 -0.444979  0.913657
0.0495064  0.822854  -0.35373
 0.117853 -0.497509  0.662535
 0.438394  0.731233 -0.176411
 0.243354 -0.719099  0.819426
0.0771403   0.25615  0.414335
0.224037 -0.52291 0.926768
 0.276257  0.344838 -0.176877
-0.257018  0.105046  0.608114
-0.00261803   -0.433786   0.0599663
-0.153204 -0.723483   0.81401
 -0.211878   0.503999 -0.0456821
-0.0685775  -0.499507   0.552864
-0.316534 0.0908813  0.230771
 0.352842 -0.310356  0.521608
 0.279671  0.296205 -0.237494
 0.304782  0.432529 -0.436844
 0.205961 -0.726019  0.832185
 0.103487 -0.518985  0.414528
0.0795289 -0.469005  0.625365
 0.029091 -0.439408  0.719847
 0.377153 -0.269277  0.318164
-0.334653 -0.546006  0.812383
-0.142584 -0.496868  0.919656
-0.308741 -0.702631 0.0326122
-0.270459 -0.246638 -0.117882
-0.244196  0.672402 -0.407276
-0.255014 -0.125376 -0.124575
0.202706 -0.43312 0.925101
-0.00347201    0.304187   -0.668586
  0.256483  0.0487632 -0.0572268
-0.217993  0.139887  0.666182
-0.311204 -0.208754  0.822681
-0.290104 0.0588682  0.648577
-0.0381061   0.784058   -0.42765
 -0.361445 -0.0521329  0.0708479
 0.14319 0.296274 0.285251
-0.0154913  -0.259859   0.948465
 0.329418    0.3043 -0.417724
-0.186158  0.324699 -0.655932
0.312747 0.228553 -0.43852
 -0.300261 -0.0699785  -0.072634
  0.26429 -0.421483  0.255165
-0.289534 -0.108743  0.852108
-0.266934  -0.26727  0.893655
 0.275258  0.239274 -0.302991
-0.0959164  -0.477347   0.592578
 0.231781 -0.582737 -0.117077
 -0.177257 -0.0369524  -0.158712
 0.264822  0.616491 -0.388072
 0.137521 -0.687524  0.714123
 0.258645  0.455885 -0.539853
-0.152522   0.28988 0.0286356
  0.304564  -0.114351 -0.0809731
-0.223602 -0.345204  0.918134
-0.0183912  -0.414419   0.774305
 0.298004  0.719719 -0.324776
 0.132274 -0.446871  0.147927
-0.287468 -0.601306   0.68376
 0.262933   0.16475 -0.509415
-0.0914158   0.315673   0.235841
 -0.17779  -0.36824 -0.106539
-4.89874e-06    0.0513497     0.954249
0.239219  0.14892 0.432345
 0.260692 -0.426408  0.405752
-0.378818 -0.166514  0.357198
-0.245527 -0.436281  0.556665
-0.233633  0.183304 -0.321379
-0.178598 -0.474208  0.506787
-0.203453  0.133364 -0.501899
 -0.257592 -0.0794452  -0.116311
 0.295983 -0.487806  0.190982
 0.041355  0.540289 0.0395703
-0.0267375  -0.481048   0.259282
-0.228823 -0.591331  0.182323
-0.114203  0.313479 0.0941829
 0.303814    0.3653 -0.244036
 0.192357 -0.234368 -0.137868
0.00976178   0.170928   0.835714
 0.320057 -0.686216 0.0616266
-0.0634847  -0.317971 -0.0973103
0.0787901  0.477465 0.0488013
 0.403771  0.617053 -0.183568
  0.33216 0.0622972  0.188169
0.0517394  0.807791 -0.393897
 0.270178 -0.645079   0.88714
0.0676826  -0.30445 -0.110866
  0.129225  -0.569067 -0.0620876
-0.0417622   0.119198   0.897049
-0.136184  0.706878 -0.466948
0.0894779 -0.486155  0.294104
 -0.176165   0.424807 0.00555336
0.125886 0.558149 -0.53355
 -0.3404 -0.23266 0.707654
-0.121588 -0.548964  0.907411
-0.329654 0.0559852  0.273642
   0.2919  0.444762 -0.219955
-0.165299 -0.493895  0.398229
 0.364168 -0.380868  0.153402
-0.181145 -0.221846 -0.143515
 0.136022 -0.249284  0.941678
 0.419373  0.753096 -0.224771
-0.318106 -0.542026  0.167169
-0.351552 -0.529104  0.132857
 -0.20683 -0.527358  0.637195
 0.245876 -0.617094  0.915006
 0.216142  0.145207 -0.388748
 -0.314488  -0.687464 -0.0162199
 -0.350137   -0.60959 -0.0512905
-0.276464   0.24924 -0.292312
 -0.08893 -0.273133  0.940469
-0.0224125    -0.2557  -0.160543
  0.34242 -0.435929  0.774395
 0.193107 -0.612944  0.169318
-0.371649 -0.148523  0.415851
0.000233339     0.11136   -0.346898
 -0.315176 -0.0269396   0.763538
 0.259413 0.0258486  0.828841
 0.280387   0.11449 0.0434706
-0.138665  0.317391 -0.663969
0.125488  0.18958 0.728628
 0.365454 -0.566768  0.087851
-0.382729 -0.170348  0.144987
0.141792  0.43822  0.02672
 0.260209 -0.636812 -0.102108
 0.222071  0.870491 -0.286391
 0.296442 -0.709181 0.0126661
0.0188092  0.118722  -0.30326
 0.262873  0.760618 -0.244379
0.201484 0.158599  0.60323
0.340173 -0.34037 0.692886
0.0661553  0.225569  0.518744
  0.160225 -0.0117415   0.941078
-0.210092 -0.214841  0.923225
-0.00131466    0.366346   0.0407048
 0.322814 0.0214444   0.46432
-0.0523922  -0.284627  -0.132792
 -0.381484  -0.352223 0.00243895
-0.383468 -0.221262    0.1398
  0.31207  0.379769 -0.292689
 0.0119801 -0.0748583   0.996402
-0.283017  0.533765 -0.284217
 0.181161  0.869706 -0.224537
-0.302953  0.717357 -0.326476
-0.368763 -0.248655  0.426708
0.335708 -0.46179 0.734037
0.229036 0.124188  0.70016
-0.130013  0.750744 -0.441475
-0.0640775   0.153004   0.852751
0.0436467  0.558923 -0.539015
0.123164 -0.55655 0.108235
 0.111627  0.379927 -0.644005
 0.253986  0.303066 -0.174334
  0.142283   0.552752 -0.0110945
-0.345641 0.0120565 0.0896495
 0.303614  0.433578 -0.285674
  0.170757   0.254675 -0.0122579
-0.377898 -0.431741 0.0947172
0.0528876 -0.439089  0.792986
 0.209185 -0.595106  0.925554
-0.225365 -0.694069  0.691728
-0.216036  0.930086  -0.29051
 -0.20564  0.133363 -0.410135
0.0121285  0.787705 -0.426304
 0.345545 -0.240757  0.663929
 0.152585 -0.451061  0.255101
 0.149916 -0.497286  0.483768
-0.0728245  -0.461356   0.861808
0.0101823  0.304973  0.298533
0.0877299  -0.64534  0.814914
0.40645 0.63475 -0.2419
 0.0883632  -0.334007 -0.0843923
-0.131976 0.0184835   0.93882
-0.303042 -0.604545  0.159787
  0.35348 -0.359147  0.234109
 0.380957 -0.474127  0.062605
-0.224017  0.624613 -0.119663
 0.158649  0.285927 0.0430681
-0.0610815  -0.512577   0.348996
-0.241112 -0.725111  0.782396
-0.23915 0.130278 0.518027
-0.322076 -0.369637 -0.101211
-0.13789 0.166301 0.780868
-0.176648 -0.274515 -0.124761
-0.211852  0.297622 -0.108473
  0.23345 -0.184975  0.909208
 0.125575 -0.470872  0.911307
0.0720096  0.751786 -0.132537
 0.238801 -0.664175  0.159833
-0.355744 -0.182294  0.604816
-0.391344  0.618287 -0.233228
-0.144043 -0.702132  0.854372
-0.328274  0.726117 -0.169289
-0.229168  0.217455  0.081467
-0.209964 -0.439008  0.925788
  0.349648  -0.555983 -0.0799503
0.132378 0.143585 -0.27819
 -0.231527 -0.0896744   0.909631
 0.271289  0.462436 -0.143751
-0.0021528  -0.354775   0.872616
 0.381201 -0.074698  0.210745
-0.147734  0.385786 -0.636517
-0.348309 -0.233578  0.641459
 0.337639 -0.327478  0.783424
0.179449 0.291917 0.220757
 -0.331264 -0.0545439 -0.0157374
 0.234691  0.208629 -0.605449
 0.153656 -0.333109  0.924006
-0.204281  0.142082  0.721396
 0.243081  0.152284 -0.424231
-0.147943 -0.482422  0.330384
0.0183099 -0.477689  0.620304
 0.341998 -0.385136   0.76683
-0.104431 -0.239707 -0.156313
-0.0842709  -0.503723   0.873508
 -0.341285 -0.0799026 -0.0069133
-0.429118  0.719971 -0.277759
-0.112781 -0.444703  0.905023
-0.390578  0.638884 -0.271741
-0.291299  0.316538 -0.600514
  -0.380979   -0.519338 -0.00682051
 0.367479 -0.471725  0.115139
 0.114388 -0.199932 -0.175525
 -0.21392 -0.453103   0.20958
  0.18037  0.687464 -0.148856
-0.298704 -0.403209  0.311202
0.122359 0.142343 0.838336
 0.187889 -0.548062   0.64455
-0.0293713   0.562612  -0.537694
-0.0881389  -0.520289   0.458014
 -0.25552  0.633408 -0.419419
-0.0231708   0.226149   0.588181
 0.383835 -0.187073  0.299397
-0.0335134   0.262482   0.406182
-0.101673 -0.504344 0.0108174
-0.207146  0.662955 -0.135918
 0.197924 -0.129541  0.932319
-0.305335 -0.457075  0.654495
-0.0599964   0.190316  -0.621206
 0.101284 -0.508793  0.361512
 -0.379899 -0.0953213   0.293664
 0.151014 -0.602786  0.916572
 -0.27916   0.17616 -0.503664
 0.271554  0.554019 -0.169782
-0.0478934   0.310236   0.278371
 0.280261  0.471692 -0.188466
0.160631 -0.72462 0.759637
-0.191833  0.272429  0.110251
 0.363433 -0.138699 0.0334942
 0.314789 -0.396925  0.511324
 0.354143 -0.522999  0.129882
 -0.30982 0.0831509  0.312903
 0.285598  0.482871 -0.451084
-0.132358  0.786558 -0.194704
  0.367611 -0.0821064  0.0793508
 0.225509 -0.435131  0.326538
-0.369324 -0.176709   0.44549
 0.119614  0.716828 -0.138893
 0.0866758   0.703619 -0.0987995
-0.0856757   0.660199 -0.0557559
0.0589086  0.808744 -0.196644
  -0.327907 0.000185695    0.592519
-0.0337758   0.335819   0.050901
-0.277265  0.405484 -0.148255
-0.130336 -0.680684 0.0555521
-0.278933  0.351154 -0.180338
0.0887903  0.341033 -0.663973
  0.337372  -0.513069 -0.0977141
-0.265609  0.275807 -0.627676
  0.195943   0.350679 -0.0439579
 0.394719  0.691164 -0.148843
-0.312696  0.100023  0.146499
-0.267977  0.595894 -0.389108
0.273462 -0.52128 0.652976
-0.400235  0.625867 -0.159651
-0.184931 -0.510947 -0.109988
-0.297131  0.129644   0.22309
 0.240626  0.325762 -0.127276
-0.166838  0.150229 -0.561826
 -0.28565  0.605647 -0.306543
-0.365228 -0.222039  0.476614
 -0.339432   -0.49833 -0.0962219
0.267281 -0.42052 0.358958
 0.199394 -0.493313  0.628513
 -0.150809 -0.0987747  -0.179749
-0.357708 -0.211785  0.563485
-0.338322 -0.309539  0.756443
0.0197287 -0.447722   0.14622
0.124848 0.310529 0.238156
 -0.23028  0.315753 -0.644969
  0.108146  -0.517561 -0.0327695
  0.210503 -0.0801504  -0.148229
-0.370674 -0.546236 0.0827494
0.232131 -0.61545 0.179108
-0.265645   0.17963 -0.549398
 0.312522  0.680074 -0.145824
-0.338316  -0.42405  0.737662
  0.185689 -0.0693159   0.940395
-0.324421 -0.556005  0.856205
 -0.325949  -0.611159 -0.0830066
-0.0322404   0.824953  -0.227676
 -0.29523 -0.412825  0.461026
0.0939013   0.40024 0.0379767
 0.358017 -0.330109   0.42403
 0.178856 -0.686727  0.891845
-0.281653  0.556955 -0.277976
 0.283638 -0.688266  0.118973
 0.304357   0.29292 -0.585347
 0.126076  0.897923 -0.234425
  0.358566  -0.253752 -0.0443306
-0.285927  0.104657 0.0425051
 0.351955 0.0135556  0.144209
 0.286564 -0.470773  0.643944
-0.0123605 -0.0716754    1.04663
-0.107126  0.763004  -0.16505
-0.174781 -0.548129 -0.102665
-0.103562 -0.592861  0.033598
-0.364754 -0.299156    0.4165
 0.282442 -0.069764  0.857234
-0.382392 -0.317939 0.0808264
-0.0803041  -0.512176   0.507688
  -0.19343   0.597429 -0.0873471
 0.285251 -0.190442  0.864844
 0.106164 -0.617018  0.710789
-0.0801435  -0.482518   0.280874
-0.305167 -0.419836   0.62292
 0.252722 -0.566702  0.187235
-0.168329  0.744325 -0.177332
-0.110325  0.135499 -0.255894
 0.374646 -0.372202  0.115538
-0.223524 -0.571553  0.925196
0.264775 0.187664  0.23595
 0.135066 -0.665611 0.0904826
0.0199114  0.101142 -0.429108
-0.366184 -0.340048  0.188902
 0.264394  0.176191 -0.403285
-0.311354 -0.458868  0.887869
0.230283 0.654159 -0.46141
-0.250925 -0.472183  0.920313
 -0.354528 -0.0763734     0.5381
 0.288042  0.507682 -0.320189
-0.341672  -0.45443  0.793732
 0.218072 -0.130431 -0.147044
 0.195733  0.731767 -0.425395
 0.353688 0.0140951  0.199172
  0.368353  -0.209919 0.00959848
-0.186212 -0.194434  0.934082
-0.0670349   0.634373 -0.0231087
0.0338163  0.480632 -0.577679
 -0.34542 -0.663053 0.0274665
-0.250941  0.296358 -0.176673
 0.225596 -0.443609  0.567647
-0.072576  0.125135 -0.286288
 -0.342065 -0.0134166   0.431939
-0.381964 -0.250675 0.0961958
 -0.34365 -0.318415  0.617974
-0.296395  0.467164 -0.399091
 -0.262456 -0.0391444  -0.101207
-0.334119 -0.382826  0.373687
-0.360787 -0.286231  0.474925
 0.192491 -0.463742  0.342185
  -0.0311946     -0.39824 -0.000978334
  0.282859 -0.0555295 -0.0866504
  0.17275 -0.180116  0.941276
-0.327388 -0.421568  0.194226
 0.216327 -0.456128  0.441514
-0.156672 -0.546232  0.923782
-0.292834  0.481846 -0.274209
 0.168368  0.173076 -0.108759
 0.203463 0.0221131 -0.121046
-0.292207 -0.605478 -0.108938
 0.315005  0.594878 -0.147308
0.099449 0.206655  0.69369
-0.0946858   0.464238  0.0450019
 0.329424 -0.389441   0.43766
-0.167744 0.0624964  0.891021
  -0.38349 -0.0922396   0.213612
   -0.31823 -0.00359325    0.709912
0.0214027 -0.492886  0.286163
-0.260333  -0.55242  0.651279
-0.296543 -0.643783  0.724639
 0.268615 0.0427342   0.78942
-0.374853 -0.107353  0.356424
   -0.1586   0.287662 -0.0235426
-0.313858 -0.262975  0.833856
  0.18257 -0.555771 -0.106906
0.114966 0.214227 0.513956
 -0.347974  -0.136331 -0.0185694
-0.288474   0.12716 0.0858478
-0.229781  0.248425  0.179472
0.0432449  0.224926  0.571014
 -0.384203  -0.471714 0.00663677
 0.134509 -0.601548  0.120486
 0.318664  0.390225 -0.409891
 0.332429 -0.488287  0.849049
 0.313266 -0.165218  0.813534
 0.249469  0.512596 -0.513057
  -0.33068  -0.137357 -0.0512684
-0.050076 -0.518857  0.361281
 -0.35496  -0.60444 0.0947226
 -0.14697  0.517486 -0.548607
-0.0203798   0.722856 -0.0676066
-0.139879   0.30976  0.202942
 0.207137 -0.719711  0.723956
-0.373994 -0.279341  0.341749
 0.138685 -0.691078 0.0081159
-0.146349  0.104578  0.868455
 0.242743 -0.510234  0.194474
 0.231534  0.197038 0.0535351
-0.133117 -0.506551  0.471007
 0.320188 -0.269046  0.822899
 0.210025    0.2384 -0.177518
 0.207805 -0.626751 -0.102603
-0.285575    0.4281 -0.513105
0.0342745 0.0761609  0.934109
 -0.21221  0.468874 -0.559364
 0.353045 -0.353488  0.378384
 0.100333 -0.485282 0.0388735
 -0.308043 -0.0744072   0.815691
-0.195828  0.583916 -0.508723
 0.196107  0.767571 -0.214325
 0.112584  0.868958 -0.285254
-0.233484 -0.519372   0.92489
  0.342448  -0.405396 -0.0926921
0.162891 0.142789 -0.32217
-0.375553 -0.251867 0.0174123
-0.270931  0.619644 -0.349494
-0.278906  0.594379 -0.309619
 -0.250905  0.0500939 -0.0623502
0.312437 -0.50491 0.687708
 0.205984  0.821119 -0.293853
 0.303323  0.369042 -0.541869
0.0359095 -0.506175  0.322272
-0.328856  0.272041 -0.487833
 0.272732  0.570078 -0.386516
-0.230449  0.204341  0.332083
-0.254858 -0.668307   0.88742
-0.348511 -0.340288  0.494932
  0.06178 0.0276936  0.960414
-0.221012 -0.708068  0.118238
  -0.3232 -0.382381  0.599696
0.104483 0.401166 -0.62966
-0.216726  0.230411 -0.207198
0.0957163  0.665193 -0.492077
-0.105606  0.556453  -0.53612
0.281411 0.163817 0.195384
-0.319794  0.367434 -0.338267
  0.169658   0.567802 -0.0427213
0.0278972  0.103889 -0.466093
-0.287505  0.466181 -0.474654
-0.0630123   0.796638  -0.178008
0.357779 -0.11021 0.568611
-0.188687  0.774154 -0.330046
 0.128617  0.215316 -0.635534
-0.308071  0.429767 -0.400438
-0.294669 -0.323531  0.881843
  0.286339  0.0254763 -0.0388193
 0.224179 -0.255527  0.915807
 0.15065 0.153376 0.794605
  0.181259    0.14007 -0.0830299
-0.383496 -0.243662  0.185689
-0.305256 0.0733259  0.372458
-0.0843361 -0.0361855   0.992357
-0.330734 -0.194222  0.762533
-0.0785481  -0.561289   0.747738
-0.270092  0.525159 -0.462719
 0.362731 -0.170019  0.519816
  0.348668 -0.0556952   0.592044
 0.258643  0.723091 -0.329802
 0.383315 -0.237156  0.153495
   0.103346   -0.542334 -0.00233173
  0.220734   0.447811 -0.0341166
 -0.150146  -0.584325 -0.0821497
-0.0904414   0.108111  -0.476191
-0.270247 -0.722351 0.0211529
-0.304203  0.267009 -0.334559
-0.321713  0.350849 -0.507949
-0.0950634   0.251886   0.415671
 0.364678 -0.202192  0.490604
-0.217564 -0.508041  0.188883
0.0914252 -0.275529  0.939509
 -0.189554   0.317389 -0.0584939
-0.205809  0.201868  0.393828
 0.353301 -0.311722 -0.069184
-0.302855  0.203542 -0.488776
-0.0921952     0.3993  -0.631741
 0.172536  0.143214 -0.546835
0.213588 0.251168 0.106962
-0.375104 -0.199097 0.0514571
-0.165175 -0.449022  0.923364
-0.224541  0.713652 -0.399241
-0.261042  0.437285 -0.108887
-0.124091 -0.604408  0.684747
0.0752793 -0.128999  0.975879
 0.322531  0.292511 -0.373604
 0.172889  0.804734 -0.330345
0.0342379 -0.380442  0.849974
  0.21783 -0.453819  0.390383
-0.385956 -0.170517  0.268271
 0.254501 -0.101229 -0.122332
 0.21578 -0.44982 0.215001
  -0.1922  0.244419 -0.133118
0.257492 0.103615 0.625924
0.0491306  0.226022 -0.645912
-0.383939 -0.442811 0.0521826
-0.319216 -0.490275  0.696986
-0.180838  -0.44187  0.253684
0.0106881  0.187617  0.806759
0.0528936  -0.34418  0.900741
0.183257 -0.55221 0.927523
   0.12817   0.635673 -0.0677423
-0.329259  0.284555 -0.419499
-0.255117 0.0521842  0.806233
0.0362002   0.05211 -0.238497
-0.0984281  -0.611136    0.72206
 0.180165  0.643354 -0.114246
0.0693682   -0.5176  0.493728
 0.281667 -0.508599  0.907875
 0.365627 -0.325925  0.312308
-0.111749 -0.084713 -0.196193
-0.382771 -0.233462  0.279969
-0.116137 -0.362515  0.917687
 0.308222   0.23804 -0.557893
  0.195752  0.0941194 -0.0912052
0.0832464 -0.498717  0.872508
0.0674979  0.788028 -0.169612
-0.0208966   0.762703  -0.108277
 -0.26568  0.217304 -0.321797
  -0.3011 -0.416673 -0.115277
0.00487467   0.820666  -0.204764
-0.174189 -0.110297  0.944955
  -0.11456  -0.402809 -0.0624525
 0.205019  0.157032 -0.336897
  0.0721364    0.605539 -0.00383498
-0.052794 -0.422641 0.0541405
-0.254436  -0.42924   0.48015
-0.0412049 -0.0886731  -0.218379
 0.295752  0.480557 -0.352823
-0.374061  -0.25935  0.371877
  0.24218  0.165376 0.0337626
  0.358553 -0.0915654   0.039229
 0.159629  0.127222 -0.130012
 0.275561  0.655119 -0.358888
0.0874973 -0.560485   0.72458
0.0807438 -0.413955 0.0411208
-0.332206 -0.365577  0.647359
0.149623 0.172178 0.750115
-0.289571  0.580298 -0.255542
 0.307595 0.0380561  0.588966
  0.356309 -0.0598858   0.441867
-0.0742144   0.327016  -0.666114
-0.0462828   0.116431  -0.328637
  -0.35525  -0.403882 -0.0824323
-0.353775   -0.1935 -0.032525
  0.23929 -0.701171  0.127319
  0.233269 -0.0675146    0.90567
 0.341488  0.752235 -0.278327
-0.234378  0.750397 -0.281345
-0.257369  0.371694 -0.119191
  0.104856   0.635249 -0.0480997
-0.251995  0.167187 -0.395792
-0.0124705  0.0912243   0.924973
-0.379657 -0.278251  0.229806
-0.377742 -0.275236  0.292922
 0.428971  0.724821 -0.276803
 -0.15928 -0.334015 -0.108065
  0.184618 -0.0308019  -0.152089
 0.171412 -0.455595  0.567574
-0.164083  0.124007 -0.504235
 -0.375156   -0.47247 -0.0456806
 0.139803  0.518019 0.0108214
0.132925   0.2598 0.379056
-0.365106 -0.256919 -0.033429
-0.285499 0.0758151  0.511579
-0.0721893   0.218557   0.639085
  0.335314 -0.0321617   0.673516
  0.225764 0.00307056   0.885803
-0.211642 -0.690834  0.889221
-0.232388 -0.389309  0.917646
 -0.175646   0.237756 -0.0856274
  0.243717  0.0812498 -0.0464114
  0.375243  -0.308828 -0.0180248
-0.284403 0.0111727  0.798253
 -0.377626 -0.0655375   0.261083
0.00179754   0.735044  -0.465231
 0.292982  0.478042 -0.403534
 0.346136 -0.575226  0.124624
-0.170716 -0.511746  0.639428
0.0724885  0.320555  0.200024
-0.360775 -0.060048 0.0602378
-0.311507  0.250237 -0.385219
 0.325977 -0.397411   0.85549
 0.234135 -0.354918 -0.116776
 0.0386425  -0.372981 -0.0336951
 0.379825 -0.284917  0.161234
  0.325517 0.00931944   0.532926
-0.0723524   0.104331  -0.241703
 -0.12329 -0.452351  0.232953
0.299446 0.119503 0.252252
 -0.268037  -0.714302 -0.0168105
-0.0967322  -0.666489   0.810447
  -0.108995 -0.00547628    0.962506
 0.158945 -0.499361  0.410953
-0.24206 0.229184 0.216019
0.0557325  0.323973  0.151282
-0.420385  0.718226 -0.164026
-0.276451  0.464228 -0.166503
-0.179596 -0.636767  0.157884
-0.364512  0.711776 -0.322362
-0.0377618   0.830814  -0.307908
-0.361123 -0.147062  0.547389
-0.0827441   -0.46184   0.233218
 -0.31042   0.22391 -0.535651
-0.0784865   0.543722  -0.544234
-0.295858 0.0220365  0.749938
-0.144212  0.827956 -0.218896
-0.101247 -0.436655  0.115051
   0.372201   -0.261347 -0.00591338
-0.351322 -0.276969  0.584466
 0.226954 -0.452722 -0.118005
 -0.313473  -0.677189 -0.0393767
 0.119653 -0.638588 -0.017143
-0.201673 -0.465193  0.363831
 0.337081 -0.109298  0.741217
0.010626 0.225867 0.630269
 0.359171 -0.211937  0.547526
 0.325873 -0.109425  0.780585
-0.201957 -0.457447 -0.112446
-0.0834225  -0.160105   0.969866
-0.251882  0.149282 0.0311957
 -0.25923 0.0983111   0.65534
 0.32498 0.348153 -0.37485
 0.382132 -0.247063   0.27167
  0.231074     0.5413 -0.0924502
 0.459786  0.732081 -0.222021
-0.106952  0.811769  -0.35258
 0.288114  0.383643 -0.186646
0.0532521 -0.267509 -0.147763
 -0.337373 -0.0308501   0.642771
-0.180684  0.146055 -0.333507
-0.370511 -0.318616  0.252342
 0.201441 -0.450685  0.583401
 0.329608 0.0262901 0.0495611
 0.376795 -0.240566 0.0302781
-0.250152  0.197898  0.282374
-0.279188  0.639477 -0.135663
  0.323475 -0.0243383 -0.0143815
-0.0186843   0.109415  -0.271736
-0.169384 -0.688561  0.115237
 0.313026 -0.400444  0.374515
 0.149619  0.834725 -0.219732
-0.332452 -0.051986  0.730355
 0.382828 -0.105147  0.164258
-0.152301  0.850158 -0.328214
 0.331556 -0.511538  0.163335
-0.0569024  -0.448129   0.800872
-0.0794055   0.237248  -0.650649
0.188065 0.195734 0.441869
   0.174099    0.498853 -0.00336039
 0.061462 -0.442582  0.827598
-0.367826 -0.206575 0.0093665
-0.296665 -0.159535  0.843544
-0.00884286    0.814506   -0.389082
 0.262712 -0.300704   0.90187
-0.0505531   0.192847   0.784647
-0.141071  0.480124 0.0255081
0.0125368  0.203783 -0.631644
 0.326762 -0.443943  -0.10336
-0.257765  0.184407  0.283133
-0.359896 -0.261992  0.506241
-0.295284 0.0577748  0.574926
  0.156536   0.376029 0.00323293
 0.301473 -0.554106  0.684597
-0.219594  0.236804  0.296622
 0.374908 -0.157692  0.080951
 0.298087   -0.6046 -0.107105
-0.0305924   0.655454 -0.0212728
 -0.43936  0.672971 -0.243266
0.088836 0.230186 0.474717
  0.18902  0.169449 -0.277155
  0.154314  -0.679312 -0.0394486
-0.273692  0.283737 -0.238395
0.0590536 -0.451503  0.185603
  0.32858 -0.186237  0.771696
 -0.328524 -0.0810565    0.76382
 0.180504 -0.441086  0.244453
-0.259092 -0.428973   0.91498
-0.262163 -0.426999  0.422331
-0.277041 -0.700944  0.785166
 0.366816 -0.178461 0.0215884
 0.104313  0.267284 -0.660834
-0.312342 -0.381438   0.87832
-0.245654 -0.426606  0.326241
-0.112998 -0.295168 -0.114889
  0.0472257 -0.00986124   -0.224609
 -0.155445   0.382642 0.00691619
-0.307453 -0.641081  0.138277
 0.381641 -0.275416  0.100146
-0.226632 -0.628104  0.175677
0.251914 0.183057 0.308696
 0.318204 0.0738187  0.291003
0.0701449 -0.486976  0.744434
-0.329804 -0.299123  0.804665
-0.226263  0.265761 -0.170575
-0.123601  0.199573  0.674379
-0.167844 -0.634306  0.665593
-0.160296   0.17342  0.722558
0.226054 0.133932 0.653446
 0.0205073     0.7415 -0.0858297
 -0.34184 -0.400866  0.788786
 0.104052  0.829731 -0.226841
 0.109928  0.114906 -0.367596
-0.296461 -0.665846  0.754682
-0.338888 -0.374372  0.316583
 -0.151037  -0.668992 -0.0459678
 0.251459  0.684482 -0.377113
  0.18533 -0.506113 -0.109946
  -0.3588 -0.346504  0.225359
-0.344634 -0.266938  0.662833
0.253171 -0.47429 0.919938
-0.0868746  -0.340632   0.911766
 0.327411 0.0607429  0.110856
-0.0106314   0.221085    0.69971
-0.0722227   0.716557 -0.0987178
-0.359455 -0.338992  0.367588
  -0.327257 -0.00170903   0.0108033
-0.296247 -0.411379  0.567729
0.194082 0.166846 0.549846
 -0.207482   0.404856 -0.0269148
 -0.29718  0.207076 -0.427217
 0.125784 0.0224707 -0.181203
 0.126704  0.123996 -0.522125
-0.104727 -0.512835  0.053579
 0.110703  0.880151 -0.266847
-0.329429  0.343158 -0.409719
  0.299889  -0.196622 -0.0999329
-0.341158 -0.151171  0.725622
0.0997568  0.815811 -0.319149
-0.279876  0.539113 -0.378366
 0.316668   0.39662 -0.361693
-0.293748 -0.704831 0.0724205
 0.034871 -0.449336  0.694643
-0.270102 -0.558646  0.185377
-0.226574  0.203138 -0.272659
 0.380358  0.743045 -0.291372
 -0.30245  0.322653 -0.270409
 0.250058  0.605696 -0.461138
 0.185969 0.0179192   0.90961
0.0447679  0.685365 -0.487521
-0.186528  0.387733 -0.627646
0.0424911 -0.272593  0.942642
 0.371424  0.632941 -0.285076
-0.0154063  -0.308066    -0.1156
-0.166837  0.132403  0.813587
-0.263351 -0.334298  0.905116
 0.319221 -0.458376   0.87522
 -0.171522   0.567461 -0.0441259
 -0.13037  0.134836 -0.204529
0.0170718  0.155058 -0.584715
  0.348994 -0.0275618  0.0481575
-0.256926   0.48245 -0.117526
 0.338573 -0.302782  0.745879
 -0.175678   0.205492 -0.0593253
0.00743957   0.354361  -0.658811
-0.0447509   0.102941  -0.459935
  0.191413  -0.711943 -0.0306722
0.281591 0.116263 0.357222
-0.335053 -0.581696  0.140261
-0.220552  0.890879  -0.25254
 0.282768  0.524957 -0.383578
0.239139 0.231161 0.146792
-0.0122749  -0.387365   0.824244
  0.252525 -0.0512406  -0.113155
  -0.1855 -0.468593  0.185283
 0.310441 -0.540641   0.88681
  0.293444 -0.0190813 -0.0593704
  0.354793 -0.0370189    0.39517
-0.148385  0.711213 -0.148292
 0.307137  0.436205 -0.379454
  0.341879   -0.60517 -0.0706728
 0.346311 -0.393934  0.185397
 0.158759  0.679812 -0.476509
 -0.24401 -0.587082   0.65276
 0.170725 -0.716648 0.0567769
 0.030616 -0.121872   0.98403
 0.275788  0.476217 -0.491551
 -0.336772  -0.206783 -0.0680718
-0.27709  0.17253 0.181095
-0.348669  0.664678 -0.323343
 0.235096  0.171424 -0.350569
-0.0611724   0.501494  -0.564638
-0.172608 -0.387794  0.921458
 0.239662 0.0980713  0.751189
 0.268783  0.665823 -0.143127
-0.0926749   0.529782   0.027999
-0.107685  0.604586 -0.516173
-0.00162823    0.140188   -0.562206
 0.278476 -0.588193  0.673114
-0.0251761   0.599989  -0.522685
-0.132263 -0.169737  0.955962
0.295575 -0.24606 0.861728
-0.267957 -0.469217 -0.119753
-0.293261  0.373829 -0.563343
 0.313853 -0.218185   0.81638
-0.0651392   0.606413  -0.519252
  -0.355856 -0.00587137    0.290141
-0.125447  0.309192  0.250197
-0.243941  0.246565 -0.231643
0.352831 -0.12856 0.645789
0.189091 0.163456 0.667369
0.0605353  0.490692 -0.571257
 0.296963 -0.431728  0.209641
   0.229566    0.149573 -0.00451308
0.0150922  0.331745 -0.665879
-0.321278 -0.626379  0.786408
 -0.144486  -0.450077 -0.0846868
 -0.280107  0.0278569 -0.0451681
 0.111792  0.314492 0.0613982
-0.102781  0.112355  0.884723
-0.133294 0.0379479 -0.174093
-0.256184   0.15873  -0.44228
-0.264467  0.163201  0.306208
 0.165162  0.287838 -0.659258
-0.158054 -0.535523  0.155577
0.0920093 -0.477278   0.68613
-0.351608  0.621297 -0.146071
-0.041144 -0.192333   0.96988
  0.38239 -0.378646 0.0699202
-0.309604  0.666566 -0.338128
-0.0110017   0.682299   -0.49004
 0.266384  -0.15496 -0.119108
  0.34045 -0.362705  0.499527
-0.143297  -0.62615  0.129439
  0.202308   0.535588 -0.0526298
 -0.343151  -0.650257 -0.0270041
 0.219487  0.458967 -0.562354
0.220625  0.15673 0.469598
-0.268812 -0.182828  0.880334
0.283745 0.133291 0.300231
-0.304058 -0.584792   0.88205
  0.34432  0.711642 -0.158081
 0.121511  0.491255 0.0334276
  0.38591 -0.437086 0.0145292
 0.116331 -0.373231 -0.075655
 0.320362 -0.625631  0.796301
0.142805 0.308775 0.195007
 -0.130345   0.326819 0.00851454
-0.303836  0.301248 -0.295947
0.0565313  0.204466 -0.631702
0.00394853  0.0891115  -0.257213
-0.0846003   0.274308   0.372765
 0.100676 -0.163821  0.965511
0.157285 0.121047 -0.38589
0.160063 0.186247 0.596573
-0.366586 -0.388321  0.137794
-0.178519 -0.683148  0.895791
 0.380137 -0.275078  0.220294
  0.365527 -0.0513598   0.342593
  0.35005 -0.174864  0.661374
-0.0105462   0.325907   0.139633
0.181947  0.14488 0.767075
 -0.221952   0.367043 -0.0662741
-0.319382 -0.423437  0.664067
-0.258217 -0.704158  0.839203
 0.0238543 -0.0424098  -0.226881
-0.181472  0.682457 -0.145868
 0.310432 -0.592305  0.865728
0.0841232   0.73838 -0.456958
-0.291545  0.570414 -0.192022
 0.204915  0.585649 -0.504638
-0.381078 -0.281508 0.0553935
 0.163753 -0.518389  0.924681
  0.19255 -0.476903  0.926836
 -0.207465   0.153294 -0.0321904
 0.381939  0.759886 -0.235018
-0.0194858   0.208399   0.753137
 0.229376  -0.18352 -0.137063
-0.168042  0.913637 -0.313908
 -0.239044   0.413529 -0.0687597
-0.248588 -0.225491   0.90164
-0.193331  0.168826 -0.287744
 -0.125921 -0.0533623   0.969064
 -0.206458  -0.694051 -0.0594375
  0.309224   -0.68565 -0.0333894
-0.364326 -0.151222 0.0298828
 0.331477 -0.392104  0.229119
-0.293693  0.390069 -0.201731
 0.132131 -0.609889  0.904269
-0.0792333   0.324001  0.0667271
-0.00771953    0.605095   0.0141059
 0.116607 -0.203685  0.954881
-0.0945709   0.319711   0.146284
 0.173791 -0.406205 -0.104321
-0.390221  0.699702 -0.312573
-0.251875 -0.347241 -0.116565
-0.263606  0.128729 0.0274352
-0.253112 -0.505198  0.637857
-0.0730247    0.22048   0.571518
 0.135971 -0.142095  0.957651
 0.327264 -0.379885  0.642874
0.261717 0.090592 0.686669
-0.210882 -0.718349  0.723459
  0.314732 -0.0816253 -0.0570642
 0.214306 -0.337077  0.919946
0.221618 0.228966 0.307437
 0.108163  0.757438 -0.160525
-0.201031  0.191505 -0.247978
 0.323953  0.701722 -0.333569
-0.290145  0.446615  -0.21354
 0.122999 -0.588261  0.681324
 0.139624  0.828853 -0.327798
-0.193856 -0.600704 -0.106528
-0.156346 -0.684649  0.692598
-0.0375513   0.115856   -0.51117
-0.0688177   0.824783    -0.2899
  -0.264179   0.0942397 -0.00868259
 0.170873  0.927408 -0.231113
0.0493619   0.76038 -0.448971
 -0.117224  -0.553359 -0.0454972
 0.219259 0.0570342  0.851264
 0.377685 -0.550279 0.0420199
  0.202581   0.198191 0.00367342
  0.189605   0.310987 -0.0622675
-0.159132  0.272156  0.334608
-0.383091 -0.142251  0.307452
-0.379581 -0.304328 0.0101957
 0.290118  0.569538 -0.168375
  -0.158293 -0.00163173   -0.161254
-0.309949  0.420659 -0.328807
-0.353115  0.698109 -0.152726
-0.150892  0.250659  0.383361
-0.198056  0.162719  0.570353
 0.326169 -0.660889  0.098848
 -0.23831 0.0294738   0.85382
 -0.330035 0.00247281   0.504462
 0.385214  0.743239 -0.185863
-0.103402 -0.520593  0.682956
0.0780759  0.322606 0.0863065
0.161433 0.198046 0.484503
  0.349124 -0.0827099   0.650704
 -0.197083   0.114638 -0.0770807
-0.269134  0.128669  0.376611
    0.3582 -0.0133224   0.294484
-0.0658665   0.596919 0.00492249
  0.243987   0.493993 -0.0909212
 0.33346 0.030873 0.337425
-0.177701 -0.729877  0.773116
 0.161026  0.743632 -0.436882
0.105011 -0.60953 0.025577
  0.108874 -0.0572415  -0.196306
-0.0364477   0.323784   0.178328
-0.385817 -0.206307  0.243479
-0.101139  0.120702 -0.517264
   0.254991 -0.00121794  -0.0903532
-0.362718 -0.019625  0.128286
-0.0374194  -0.366596 -0.0424532
-0.0537104   0.325061   0.109824
0.0950081 -0.494249  0.551723
 0.236215  0.199728 -0.293843
-0.125151  0.509207 0.0241596
-0.314333 0.0147629   0.67691
 0.363139 -0.337282  0.235608
-0.236614 -0.508796 -0.122067
 0.439075  0.694778 -0.155577
-0.105472  -0.56878  0.694259
-0.258225 -0.659948   0.15675
-0.050582 -0.112951  0.982685
0.0740831  0.125229 -0.284178
 0.121444  0.129298 -0.324118
 0.341896 -0.030147  0.547714
 0.238319 -0.556448  0.646433
-0.385696  -0.13229  0.179063
 0.134128 -0.168288 -0.180305
 0.251665 -0.223941 -0.125046
 0.283225  0.643224 -0.340542
  0.366907  -0.590355 -0.0298418
0.212335 0.156547 0.512911
0.00652882  -0.517481   0.347774
-0.0747857   0.364007  -0.654122
-0.138096 -0.192438 -0.169722
 0.0732619 -0.0499945    1.00513
 0.222052 -0.442741  0.481112
-0.0623033   0.820345  -0.354818
 0.154586  0.124668 -0.511259
 0.368462  0.615964 -0.151413
 -0.34029 -0.332316  0.702826
-0.199706 0.0291709   0.89106
-0.200254 -0.560446  0.179573
-0.175718  0.790145 -0.221643
 0.106278 0.0667423 -0.198594
 -0.10034 0.0779993  0.914501
 0.367046 -0.144735  0.462901
-0.110617 -0.687126   0.75914
0.00840175  -0.412119  0.0147167
 0.384708 -0.227279  0.215582
 0.294554 -0.514477 -0.118442
0.223565 0.198312 0.361392
-0.0350798  -0.447905   0.152491
0.00465598  -0.297894   0.927071
 0.280215 0.0600014  0.713829
 0.168041 -0.646584   0.66852
  0.27839 0.0857808  0.505477
-0.198708 -0.299501  0.923168
-0.172096  0.174938 -0.593281
 0.331963 0.0176456  0.394586
  0.142549 -0.0491063   0.962129
-0.375445  -0.20605  0.384424
0.0199455 -0.507478  0.545788
-0.0125001   0.644627  -0.505667
 -0.367102 -0.0660083   0.358028
0.192515 0.274763 0.268457
-0.385686  -0.39554 0.0235924
-0.315911 -0.614029  0.844583
  0.33649  0.745192 -0.187236
-0.202125  -0.73254  0.807779
0.0117018  0.104206 -0.388287
  0.378635  -0.530386 -0.0235808
0.153156 0.192979 0.546591
  0.18697  0.873389 -0.329647
 0.272168  0.153209 0.0808089
-0.0370748 -0.0174223   0.998958
  0.375353 -0.0560237   0.259244
 0.0981418 -0.0219625   0.977372
 0.122149 -0.469191  0.589908
   0.335479 0.000967291    0.436467
-0.274171  0.527341  -0.19723
 -0.22166  0.353156 -0.636511
-0.219856  0.624539 -0.482634
 0.274956  0.516709 -0.199891
0.289632 0.138804 0.119137
 0.377047 -0.220504  0.365258
-0.320507 -0.393706  0.488074
 0.130791  0.675869 -0.111327
  0.38041 -0.425312 0.0796533
 0.166567  0.169944 -0.230047
-0.158921  0.294106 0.0992373
0.268204 0.169762 0.273957
 -0.358799  -0.443461 -0.0789772
 -0.44132   0.74509 -0.203262
  0.315275 0.00624109   0.697479
-0.139999 0.0848895 -0.165588
-0.0343126  -0.525308   0.480971
-0.269262  0.601234 -0.130602
-0.379513 -0.487071 0.0683053
 -0.379866 -0.0862185   0.151442
-0.302968 -0.467531  0.195947
 0.331003 -0.566135  0.822478
 -0.291357 -0.0317481   0.825328
 0.164515 -0.649419   0.90694
-0.128164  0.200903  0.624629
0.0327297  0.553656 0.0358199
-0.0978944  -0.213813   0.956685
-0.271806 -0.300256 -0.115969
 0.0987349 -0.0842997     0.9755
0.0885173 -0.438253  0.118449
-0.331865  0.323321 -0.453272
 0.14332 0.219685 0.454237
  0.20749  0.129836 -0.477629
 -0.20295  0.773503 -0.252917
 0.350313 -0.231788  0.624014
 -0.123931  -0.627541 -0.0354991
 0.217331 -0.731279 0.0248754
 0.085995  0.229772 -0.646896
