-0.431024  0.297882  0.851754
 0.422388 -0.423582 -0.801353
 0.845238 -0.039767  0.532908
-0.796688  -0.40255  0.450824
-0.241327  -0.81393  0.528469
  -0.7637 -0.637078  0.104373
 0.339104  -0.87062 -0.356413
 0.774951 -0.552959 -0.306083
 -0.59482  0.777275 -0.205019
-0.685096 -0.358156 -0.634325
-0.562157  0.385699 -0.731585
-0.654228 -0.572333 -0.494389
-0.190358 -0.961841 -0.196535
-0.742115  0.180576   0.64549
-0.36536 -0.23246 0.901374
0.817454 0.312658 0.483749
-0.764156 -0.584071  0.273726
-0.89726 0.403239 0.179786
 0.409845 -0.689392  0.597298
 0.895582 -0.336799  0.290687
 0.202391 -0.937925 -0.281664
-0.349768 -0.772094  0.530597
 -0.52194 -0.338312 -0.783023
0.0923638  0.922605 -0.374526
 -0.27138  0.309489 -0.911356
0.356347 0.388132 0.849924
-0.506652 -0.329484  0.796708
  -0.29383 0.00491653   0.955845
  0.53658   0.55252 -0.637812
-0.936495  0.346644 0.0530549
 0.491471  0.433898 -0.755109
-0.180355  0.763249  0.620422
-0.975046 -0.213459 0.0609985
-0.555679 0.0121326 -0.831309
-0.213893   0.44734  -0.86841
 0.281309  0.835511 -0.472003
0.369545 0.890529  0.26532
-0.567627 -0.341016  0.749338
0.571013 0.758169  0.31484
 0.21953 0.527347   0.8208
 0.169469 -0.471671  0.865336
-0.177186 -0.797977  0.576054
 0.416484 -0.537696 -0.733092
 0.898608 -0.430824 -0.083035
 0.033918 0.0546217 -0.997931
 0.925406 -0.319259  0.204202
-0.224278  0.495865  0.838938
-0.392753  0.661955 -0.638405
 0.142658 -0.443799 -0.884698
 0.316284 -0.909728 -0.268998
  0.990862   0.116136 -0.0685902
0.303537 0.871899 0.384263
-0.976282  0.103395 -0.190216
-0.0498887   0.962949   0.265028
 0.781354 -0.623981 0.0115428
-0.444906  0.797562 -0.407373
   0.5901  0.805661 0.0518846
-0.498692  0.829319 -0.252066
-0.391609  0.787032  -0.47668
-0.920735 -0.289441 -0.261668
-0.986012 0.0347359 -0.163014
  0.974639 -0.0251959    0.22236
 0.867884  0.494114 0.0512744
 -0.21538 -0.658746  0.720878
-0.777066  -0.53244  0.335674
-0.778236 -0.463864  0.423294
-0.987466  0.154118 0.0340316
0.0369652 0.0376584  0.998607
 0.462876 -0.671169  0.579032
-0.120348  -0.19104 -0.974177
  0.910196 -0.0644281  -0.409136
 0.955533 -0.249409  0.157326
 0.772295  0.109744 -0.625713
 0.541551  0.777292 -0.320218
 0.755521  0.491609 -0.433022
 0.454519 -0.817656  0.353344
 0.45107 0.868325 -0.20627
 -0.914563 -0.0645752   0.399255
 0.771202 -0.219545  0.597535
-0.961264  0.172786  0.214748
  0.02557 -0.118165 -0.992665
0.0609151  0.467782 -0.881742
 0.672778  0.230538 -0.703009
-0.321881  0.214144  0.922244
-0.878082 -0.291947  0.379129
-0.456018 -0.818905  0.348487
-0.0504527  -0.998581  0.0170275
 0.117435 -0.421752  0.899074
0.394652 0.547198 0.738122
0.00207639    0.55673   0.830691
-0.0771623  0.0749054   0.994201
  0.07176  0.156313 -0.985097
  0.64036  0.507029 -0.576941
-0.749679 -0.472076 -0.463816
0.256307 0.358837 -0.89752
-0.055424 -0.610796  0.789846
0.00440086    0.82215   0.569253
-0.347011 -0.627562 -0.696958
0.714355 0.239047 0.657688
 0.124547 -0.679849 -0.722698
  -0.944028 -0.00119491    0.329863
 0.570517 0.0511362 -0.819692
 0.868115 -0.380476 -0.318769
-0.358446 -0.491537  0.793667
-0.0345297  -0.514625   -0.85672
0.148843 0.156257 0.976437
-0.528027 -0.754287 -0.390177
 0.559261  0.699116 -0.445493
  0.80252 0.0146919  0.596444
-0.562428 -0.147928 -0.813506
  0.90958 -0.155687  0.385261
-0.114331  0.378923  0.918338
-0.0393425   0.242027   0.969472
 0.650475  0.172235 -0.739741
-0.396574  0.417374 -0.817635
-0.567629 0.0353354  0.822526
-0.00534226    0.628565    0.777739
-0.936203 -0.299503  -0.18391
 0.255409 -0.955844 -0.145359
-0.489766 -0.104175 -0.865608
-0.606014  0.709975 -0.358722
-0.360931  0.231416 -0.903424
0.889932 0.248353 0.382546
-0.279836  0.678595 -0.679117
-0.763887  0.572396   0.29806
0.0381494  0.406541 -0.912836
-0.00725724   -0.225789    0.974149
-0.701578 -0.522672 -0.484358
0.228049 0.908545 0.350056
0.0993122 -0.237041   0.96641
  0.950049  -0.300432 -0.0845366
 -0.44899 -0.771404  0.450938
-0.823132 -0.160842  0.544594
-0.908008 -0.339882  0.244951
  0.34598 -0.744011 -0.571616
 0.519591 -0.659427  0.543306
0.440661 0.679361 0.586759
 0.830271   0.37084 -0.416087
 0.720204  0.682688 -0.123465
-0.0379107   0.305794  -0.951343
-0.827099  0.558688 0.0614472
0.172738 0.874965 0.452325
 0.536263 -0.761156 -0.364779
0.418018 0.797861 0.434373
-0.659144 0.0700057  0.748751
 0.775824 -0.344318 -0.528717
-0.967742  -0.16433 -0.190975
  0.92783 -0.187381  0.322521
-0.00497291   -0.984453     0.17558
 -0.56792 -0.297311 -0.767511
  0.62978  0.555642 -0.542807
-0.705059  0.674978  0.217475
 0.969467 -0.180194  0.166322
  0.93535 0.0681016 -0.347107
 0.708114  0.383263 -0.593029
 0.499709 -0.186052  0.845976
0.561974 0.739987  -0.3696
 0.769046 -0.440891 -0.462799
-0.219016  0.254925 -0.941831
-0.535525 -0.537008 -0.651794
-0.888226  -0.44079 -0.129453
-0.999337 0.0224321  0.028669
 0.266524 -0.877499 -0.398698
 0.408253  0.416263 -0.812437
-0.846371  0.430407  0.313698
-0.287966 -0.907811 -0.304885
-0.215962 -0.419183  0.881842
-0.00480691   -0.151405     0.98846
-0.149693 0.0242103  0.988436
-0.782182  -0.20842  0.587156
 -0.821458 -0.0310713   0.569422
-0.804871 -0.159022 -0.571747
0.404696 0.912116 -0.06531
-0.712498 0.0815236  0.696922
-0.354699 -0.272988  -0.89424
  0.77742 -0.527158  0.343106
  0.883569 -0.0576626   0.464737
-0.308802 -0.788649 -0.531672
-0.341828  0.500309 -0.795515
-0.300138 -0.871989 -0.386719
-0.983354 0.0213444  0.180439
  0.87752  0.350322 -0.327464
 0.351856 -0.542357   0.76292
  0.92246  0.358574 -0.143148
 0.316265  -0.19949 -0.927459
-0.778393 -0.353068  0.519084
-0.556524  0.750988 -0.355385
-0.0528462  -0.427499   -0.90247
-0.747247 -0.419278 -0.515585
-0.833307 -0.387052  0.394703
-0.407406 -0.467432 -0.784556
-0.480747 -0.236034 -0.844494
-0.0270369  -0.575232  -0.817543
-0.767504 0.0498708  0.639101
0.00932986  -0.192594  -0.981234
  0.21635  0.976154 0.0177553
 0.286283 -0.850918  0.440433
 -0.51184 -0.814651 -0.272696
 0.465941 -0.169067 -0.868513
-0.158483 -0.417505 -0.894747
 -0.94509 0.0818968  0.316382
-0.697264 -0.352455  0.624178
 0.958574  0.284742 0.0076582
-0.931787  0.332436 -0.145806
  -0.769647 -0.00802915   -0.638419
 0.363442 -0.632946  0.683586
-0.00412655    0.759517   -0.650474
-0.513386  -0.56534   0.64562
-0.0100447  -0.088436   0.996031
-0.178124  0.212118  0.960874
 -0.838022   -0.54201 -0.0627975
 0.166292 -0.628727 -0.759638
 0.172324 -0.372376  0.911943
-0.0240045   0.968904  -0.246272
 0.312094 -0.948224  0.058888
 0.223034  0.941554 -0.252452
-0.155021 0.0285176 -0.987499
 0.592259 -0.288246 -0.752425
  0.996483  0.0837643 -0.0021419
-0.478064 0.0115819  0.878249
-0.831867 0.0344751 -0.553903
-0.368358  0.832142 -0.414551
-0.0641728  -0.773306   0.630777
-0.502221 -0.762628  0.407642
-0.213676   0.97665 0.0223086
-0.173607   0.39774  0.900924
-0.201036  0.656948  0.726638
-0.809583    0.1217  0.574252
0.694567 -0.37045 -0.61672
 -0.960896   -0.25925 -0.0973082
 0.245176  -0.96517 0.0912992
-0.891412 -0.327131  -0.31364
-0.791688 0.0753782 -0.606258
-0.116623 -0.870417  0.478302
 0.896819 -0.368771 -0.244384
   0.955844   -0.293838 -0.00469055
0.0901407 -0.109639 -0.989876
0.425993 0.377867 0.822038
0.294769 0.906548 0.302127
-0.547631 -0.802006  0.238512
 0.219959 -0.852231  -0.47468
-0.019031 -0.350508  0.936366
-0.299967  0.938171 -0.172788
-0.197955  0.817469  0.540887
0.860182 0.250447 0.444257
0.0499215 -0.993002  -0.10703
0.468365 -0.48802 0.736526
-0.569191  0.148756  0.808637
-0.105371 -0.301926   0.94749
-0.871558  -0.46303  0.161214
-0.469854 -0.314392  -0.82486
 0.172945  0.905103 -0.388431
 0.694009 -0.258704 -0.671881
 0.157008 -0.303151  0.939919
 -0.54187 -0.455767 -0.706154
-0.230674  0.512953 -0.826843
-0.285524 -0.350348  0.892038
  0.88803 0.0697708  0.454461
-0.967707  0.202658  0.149909
 0.549208 -0.245642  0.798769
 -0.996843  0.0197305 -0.0769102
 0.742933 -0.668723 0.0293108
 -0.990479 -0.0512122  -0.127786
-0.55735 0.822687 0.112016
0.633711  0.33331 0.698079
0.478663 0.621587  0.62009
 0.264276  0.651412 -0.711211
-0.534087  0.589543  0.605962
-0.0666798  -0.852148  -0.519035
-0.912189  0.236225 -0.334827
 -0.125007 -0.0526726  -0.990757
-0.629229 -0.368771  0.684163
 -0.385042   0.920525 -0.0661561
 0.229837  0.770405 -0.594686
0.605881 0.669391 0.429912
-0.753423   -0.1885 -0.629938
-0.672331 -0.290831  0.680726
 0.719421 -0.578589  0.384276
-0.476802 -0.167262  -0.86295
 0.511742  0.839569 -0.182329
 0.910212 0.0400266 -0.412203
 0.395177 -0.218808 -0.892165
-0.530325  0.646959  0.547905
-0.822925 -0.501073  0.267807
-0.92707 0.302535 -0.22139
-0.780251  0.184265 -0.597708
-0.558359 -0.250771   0.79079
 0.660023 -0.726754  0.190258
-0.934308  0.163433  0.316793
-0.735057 -0.450224  0.506942
 0.191981  0.430672 -0.881853
-0.869053  0.482714 -0.108327
0.835481  0.20155 0.511223
-0.257693    0.9628 0.0813003
-0.286827  0.802339  0.523434
-0.43429 0.836124 0.335095
 0.756739  0.434473 -0.488446
 0.429734  0.802506 -0.413901
 0.344981 -0.205338  0.915874
 -0.998721 -0.0355439 -0.0359581
-0.395555 -0.866477  0.304555
  0.720131 -0.0983179   0.686837
 0.749533  0.629712 -0.204114
-0.495206 -0.261415  0.828513
-0.289707  0.456831  0.841056
  0.5419 0.733942 0.409479
 0.373684 -0.810788 -0.450537
 0.221667  0.832987 -0.506948
 -0.607023 -0.0464254  -0.793327
-0.895121  0.308549    0.3218
-0.541289  0.724681  0.426431
-0.606361 0.0811776  0.791035
0.546979 0.226069 0.806044
  0.251024 -0.0381502  -0.967229
-0.143581 -0.187601  0.971695
-0.676899 -0.658179  0.329558
-0.908058  0.336653  0.249191
0.232163  0.81324 0.533612
 -0.3525 0.638755 0.683913
 0.622644  0.276771 -0.731924
-0.0329391   0.118905   0.992359
0.868471 0.387666 0.308987
  -0.87805 -0.0568956  -0.475175
-0.948495  0.253442  0.190063
 0.552633  0.635481 -0.539222
-0.00212388    0.201845   -0.979415
-0.140444  0.989113 0.0439433
0.431399 0.611944 0.662888
 -0.156975  -0.986615 -0.0441476
-0.570052  0.801287  0.181604
 0.144289 -0.964459  -0.22136
 0.802126  0.445496 -0.397652
 0.384371  0.902032 -0.196462
 0.120455 -0.981538 -0.148572
-0.401078 -0.177968  -0.89859
0.812111 0.516757 0.270993
0.877185 -0.23264 0.420029
-0.0335356   0.322805   0.945871
-0.539817  0.250969   -0.8035
0.963227   0.2328 -0.13416
 0.950233 -0.050875 -0.307359
  0.999747 0.00206875  0.0224015
-0.599273 -0.216108 -0.770824
0.00215551  -0.646102  -0.763248
-0.677134 -0.513952  0.526633
-0.774924 -0.111065 -0.622219
-0.524291   0.25805  0.811498
 0.234966 -0.319584  0.917963
-0.893497 -0.404097  0.195878
-0.683291 -0.127947 -0.718848
 0.946069  0.125049 -0.298858
 -0.41755 -0.592923 -0.688545
-0.688906 -0.418275 -0.591992
-0.272299 -0.844984  0.460277
-0.931998 -0.183499  0.312581
0.122713 0.989992 0.069694
0.936204 0.348765 0.043419
-0.145415  0.344092 -0.927607
 0.882459 -0.264049 -0.389286
0.162826 0.953242 0.254592
  0.64422   0.61988 -0.448028
 0.759647 -0.352955  0.546224
0.549351 0.800314 0.240232
 0.951718 0.0379977  0.304614
 0.641541 -0.333752 -0.690677
-0.372513 -0.085354 -0.924093
-0.456338 -0.867981  0.195867
 -0.76378  0.630976 -0.136048
-0.0917341   0.453315  -0.886617
0.952526 0.163759 0.256667
 -0.952151   0.305573 0.00576534
-0.930216 -0.348361  -0.11551
 0.854837 -0.337872  0.393822
-0.886916 -0.332639  0.320518
-0.0113945  -0.893814   0.448292
-0.410007  0.893092  0.185151
-0.869901  0.488253 0.0698649
 0.182116  0.805797 -0.563493
-0.075601 -0.798519 -0.597204
-0.284812  0.557344  0.779903
-0.978416 -0.172366 -0.113984
0.577491 0.470227 0.667376
0.434468 0.858312 0.273017
-0.0967135  -0.478571   0.872706
 0.947734 -0.284096  -0.14522
 -0.62201 -0.149917 -0.768523
-0.711035  0.540016  0.450347
-0.155376  0.544798 -0.824047
-0.118834   0.62483 -0.771664
 0.432388 -0.890979 -0.138551
 0.512751 -0.473024 -0.716474
  -0.19728 -0.0511973  -0.979009
 0.868779 -0.409961  0.277769
 0.837552 -0.501645  0.216468
-0.615128  0.184114  0.766629
0.240177 0.875269 0.419785
-0.00370155    0.999952  0.00907038
 0.249087 -0.613299  0.749546
0.0741187  0.980507 -0.181971
 0.758374 -0.605181 -0.242126
-0.015987 -0.951924 -0.305916
-0.40914 0.641885 0.648528
 -0.755299   0.652533 -0.0610314
-0.189659 -0.879008  0.437464
 0.562658 -0.797857 -0.216427
-0.276435  0.054732 -0.959473
-0.773243   0.41375 -0.480527
-0.428364 -0.888673 -0.163598
-0.54341 0.801766 0.248752
0.162902 -0.73046 0.663243
-0.880198  0.403715  0.249532
 -0.659124  -0.750738 -0.0441236
 0.337918  0.452604 -0.825204
 0.380936 -0.840325  -0.38567
 0.690743  0.603717 -0.397994
-0.270414  0.630378  0.727668
-0.817027 -0.333017  0.470708
0.352596 0.211887 0.911471
 0.646323 -0.113973  0.754505
-0.306989 -0.279227   0.90983
-0.873473 0.0231799 -0.486321
0.0571139 -0.348866 -0.935431
 0.804169 -0.356568  0.475575
-0.230753   0.95715 -0.174979
 0.591606 -0.603074  0.535074
0.770534 0.343619 0.536846
-0.192409  0.608996  0.769482
 0.0954159   0.992062 -0.0819067
0.878738 0.171555 0.445407
 0.670862 -0.693658  0.262265
   0.28187  -0.956758 -0.0718608
-0.246611  0.170087  0.954072
-0.698572  0.192557 -0.689143
 0.462887 -0.872591  0.155953
-0.589905 -0.790597  0.164219
-0.066739  0.857633  0.509914
-0.526426 -0.843936  0.103186
0.208121 0.442418 0.872326
 0.183878  0.721922 -0.667097
 0.943493  -0.25267 -0.214426
-0.895101  -0.40576 -0.184805
 0.766623 -0.113095  0.632059
  0.915859   0.401308 -0.0124238
-0.824639  0.404243  0.395674
-0.473822 -0.876012 0.0899743
 0.695509  0.554866 -0.456499
-0.387331 -0.680415 -0.622102
0.493239 0.491096 0.718011
 0.354343 0.0775805 -0.931892
-0.248249 -0.675731 -0.694089
0.671939 0.453919 0.585197
-0.364349 -0.930832   0.02832
-0.0418073  -0.719318   0.693422
 0.530908  0.351145 -0.771255
0.748493 0.578302 0.324538
 0.284562   0.95859 0.0113869
-0.0628699   0.995393 -0.0723915
 0.289483 -0.310582 -0.905394
0.439371 0.878968 0.185388
-0.304831 -0.950547 0.0594895
 0.895602 -0.310493 -0.318576
 0.656785 -0.652091  0.378697
0.0240868  -0.98544 -0.168307
 -0.49703 -0.591767 -0.634644
-0.345811 -0.565422  0.748808
-0.818565 -0.485359  -0.30721
 0.149111 0.0392829   0.98804
-0.607451  0.701652  0.372408
 -0.721795 -0.0775199   0.687752
-0.133434 -0.775182  0.617485
 0.157896  0.684709 -0.711507
-0.479284  -0.80477 -0.350189
  0.626688   0.775209 -0.0794549
0.0916602 -0.573231 -0.814251
-0.446729 -0.340802  0.827216
 0.429592 -0.897514 0.0995993
 -0.96677  0.168344 -0.192398
  0.995904  0.0441531 -0.0789059
  0.48815 -0.427189 -0.761064
 -0.80344  0.225666 -0.550962
-0.0713076   0.929388    0.36215
-0.489872  0.777554  0.394253
0.652409 0.208236 0.728698
0.598426 0.714396 0.362663
-0.886226  0.286514 -0.364024
 0.297609 -0.267406  0.916473
 0.104438 0.0892629  0.990517
 0.105987 -0.783679  0.612057
 -0.41944 -0.905684 0.0616975
0.372463 0.513739 -0.77288
-0.250498  0.170355 -0.953011
-0.296936  0.861447 -0.411992
 -0.96814 -0.169295  0.184513
-0.69116 0.641662 0.332517
-0.511227 -0.859236 0.0189935
  0.758328   0.648598 -0.0652694
0.547234 0.059305 0.834876
 0.751878 -0.212946 -0.623966
0.111306 -0.11313 0.987326
 0.555162   0.41545 -0.720553
-0.130319  0.909254  0.395315
-0.615352  0.783841 0.0832733
-0.555746 -0.814451 -0.166779
 -0.319633 -0.0581981   0.945752
-0.427048  0.737949  0.522553
-0.103006 -0.712301 -0.694275
-0.867011 -0.421595 -0.265611
-0.270251  0.922267  0.276383
  0.964912 -0.0818899  -0.249478
 0.494234 -0.722566  0.483355
 0.405136  0.570337 -0.714549
0.494618 0.834117 0.244135
-0.0922836  -0.129498   0.987276
-0.506908  0.187551  -0.84135
-0.573082 -0.618271 -0.537884
 -0.164526 -0.0933882   0.981942
 0.109089  0.355791 -0.928177
0.319191 0.923759 0.211626
 -0.58173 -0.808567  0.088365
0.199886   -0.757 -0.62209
  0.40587   0.64545 -0.647043
0.0953851 -0.635006  0.766596
-0.322755 -0.687792 -0.650209
0.656414 0.734119 0.173752
-0.836392  0.427217 -0.343415
-0.997715 -0.044621 0.0507226
 0.358027  0.142994 -0.922697
 -0.267141  -0.963643 0.00523561
-0.398403  0.122781  0.908956
-0.691934 -0.584668 -0.423545
-0.712913  0.603837 -0.356561
-0.644292 -0.740908  0.189586
 0.104993  0.803186 -0.586403
 0.221226 -0.586849 -0.778889
-0.234944  0.258301   0.93706
0.0877659 -0.286699 -0.953992
  0.145115 -0.0932067  -0.985015
-0.409383 -0.817393  0.405307
 0.443365  0.845953 -0.296295
0.0921937    0.9865  0.135346
0.251071 0.581431 0.773887
 0.902367 -0.143589 -0.406345
-0.902814  0.411228 -0.125768
-0.189116  0.941292   0.27965
-0.957967 -0.231889 -0.168901
  -0.1422 -0.341433 -0.929087
-0.149624 -0.810479 -0.566336
 0.434072  0.129687 -0.891495
-0.503044  0.855418  -0.12332
 0.584096  -0.63921 -0.500242
-0.224763  0.362939 -0.904299
-0.208572 -0.720101 -0.661779
 0.40728 0.837927 -0.36332
 0.140497   0.75463 -0.640932
-0.895431   0.42999  0.115378
 0.240079  0.034405 -0.970143
 0.714638 -0.531754  0.454456
-0.0751357   0.727266  -0.682231
-0.48625 0.386771 0.783562
 0.372722 -0.477994  0.795361
-0.470827  0.838563  0.274105
-0.0713088   0.364362  -0.928523
-0.880349 -0.468898 0.0715614
-0.0621546  -0.405196   0.912115
-0.0636035   0.804599   0.590403
-0.629179  0.181123 -0.755862
 0.352524 -0.555426 -0.753146
-0.285212 -0.774436  0.564715
-0.940846 -0.317952  0.117118
-0.105807 -0.894569 -0.434225
-0.010597  -0.91616 -0.400674
0.032216 0.966822  0.25341
-0.295296  0.548659  -0.78216
 0.129757   0.85511 -0.501946
0.451646 0.139959 0.881151
-0.340816 -0.918272  0.201545
-0.520797 -0.845845 -0.115398
-0.666026 -0.631156  0.397556
 0.374207  0.696459 -0.612302
 0.469167 -0.816517 -0.336427
-0.359142 -0.329898  0.873031
 0.70594 0.350575 0.615423
 0.79811 0.593445 0.104126
   0.942973 0.000360004    -0.33287
 0.176554   0.87295 -0.454738
-0.469362  0.740031  -0.48172
 -0.27501 -0.908981  0.313245
-0.890455  -0.13483  0.434639
 0.780183 -0.605315 -0.157822
-0.608191  0.745181 -0.273512
  0.729514  -0.680684 -0.0669263
 0.636342  0.771397 0.0038006
  0.70669 -0.284121  0.647969
-0.736724  0.420717  0.529373
-0.358782  0.272331  0.892811
-0.795063  0.466649  0.387445
 0.133794 -0.865401 -0.482887
-0.77111 0.347025 -0.53382
-0.202037  0.930347 -0.305999
 -0.27569 -0.622383  0.732553
-0.112117  0.194697  0.974435
-0.646189 -0.753974  0.118167
 0.943861 -0.124798  0.305861
0.0669081 -0.909498 -0.410288
 0.487762 -0.289288 -0.823651
 0.490527  0.155902 -0.857367
-0.0550052  -0.859174   0.508719
 -0.723852   -0.68748 -0.0583878
-0.856254 0.0929441 -0.508124
-0.353581  0.922735 -0.153427
-0.935846 -0.166519 -0.310585
-0.402408 -0.176522   0.89828
 0.190085  0.976746 0.0991687
-0.760896 -0.298658  0.576056
 -0.298368 -0.0582206  -0.952674
 0.890636 -0.442182   0.10603
  0.529471 -0.0828237   0.844275
-0.186564  -0.21064 -0.959596
 -0.37957 -0.847901 -0.370122
-0.338195 0.0147126 -0.940961
-0.655291  0.620368 -0.430971
-0.749386  0.639871  0.170254
-0.749831  0.148382 -0.644776
   0.2821  -0.93245 -0.225735
 0.984702 -0.120775  0.125602
-0.403936 -0.607639  0.683821
-0.422373 -0.271745  0.864729
 0.246678 -0.729259  0.638225
  0.893692 -0.0212025  -0.448179
-0.734766 -0.660235 -0.155592
0.503524 0.849247 0.158878
 -0.17351 -0.936296 -0.305359
-0.856064   0.49735  0.140702
-0.984856   0.13494  0.108858
0.415619  -0.8869 0.201666
-0.771105 -0.298727 -0.562281
-0.675634  0.143352  0.723165
0.293299  0.25122 0.922423
 -0.674637   0.737968 -0.0163683
-0.223649 -0.555527 -0.800856
-0.939506 -0.252052  0.231946
   0.0922925 -0.000779083    -0.995732
0.0942475 -0.871781  0.480745
-0.505666   0.75911 -0.409945
-0.959233 -0.105125 -0.262338
-0.0582328   0.570486    0.81924
0.821566 0.222741  -0.5248
-0.417106   -0.8967  0.148162
 -0.581983   0.810438 -0.0669773
 0.178863  0.359222 -0.915952
-0.495511  0.206489  0.843701
-0.293624  0.305436  0.905811
-0.172066  0.782345 -0.598607
-0.874125  0.185918   0.44871
-0.403996  0.690938  0.599493
  0.819878   0.565652 -0.0885301
-0.470797 -0.838918  0.273069
  0.890276   0.453448 -0.0423424
0.0298162 -0.718664  0.694718
 0.657884 -0.294305  0.693234
-0.516376 -0.836311  0.184228
-0.172156 -0.305856  0.936384
 -0.142701   0.987321 -0.0695297
 0.381857 -0.325399 -0.865044
 -0.61736 -0.639528 -0.458117
 0.343996  0.930765 -0.123865
0.972215 0.054327 0.227697
-0.216506  0.106287 -0.970478
-0.0756577   0.160941   -0.98406
  0.327467   0.943632 -0.0482042
0.795167 0.470654 0.382353
-0.939219  0.231474  -0.25355
   0.164037 -0.00787877   -0.986423
-0.433687  0.198096 -0.879018
 -0.48519  0.807957 -0.334359
  0.994147 -0.0314258   -0.10336
  0.953876   0.290152 -0.0770294
 0.207039 -0.251085  0.945564
  -0.8338  0.541677 -0.106595
 0.457739 -0.793758 -0.400528
-0.732129 -0.509111  0.452541
0.618517 -0.21247   0.7565
-0.195874  0.898071  -0.39383
 0.299397 -0.875553  0.379167
 0.341168 -0.387824  0.856269
 0.239675 -0.451246 -0.859612
 0.626581 -0.768518 -0.129524
-0.518264  0.444551   -0.7306
-0.404081 -0.394799  0.825137
 -0.948628   0.306084 -0.0801082
 0.158441 -0.666765  0.728231
  0.560131 -0.0232335  -0.828078
 0.983317 0.0731886 -0.166526
-0.123065 -0.930821  0.344133
0.775544 0.579806 0.249714
  0.34096 -0.880726  0.328737
0.901128 0.296455 0.316358
-0.630507  0.025782 -0.775755
 0.650539 -0.651014 -0.391126
-0.0540555   0.988236  -0.143062
0.186603 0.587646 0.787307
  0.71825 -0.454757 -0.526605
   -0.762  0.530524 -0.371349
 -0.67725 -0.674756 -0.293321
-0.652164 -0.421502  0.630094
0.326858 0.528533 0.783464
 0.604644 -0.202962 -0.770203
-0.928128 -0.326417   0.17897
-0.665063  0.592623  0.454411
-0.242671 -0.959831 -0.140838
 0.283276 -0.120297 -0.951464
 0.727984  0.198815 -0.656134
-0.600244  0.103259 -0.793124
0.771466 0.524895 0.359619
  0.46417 -0.777943  0.423499
-0.981407 -0.163272  0.100907
-0.0512409   0.994831  0.0876676
-0.644664   0.38562  -0.66008
-0.864997  0.357273  0.352329
-0.309117  0.895865  0.319175
-0.288531 -0.730958  0.618425
 0.828879 -0.478857  0.289235
0.712147 0.693352 0.110047
  0.800545   0.598727 -0.0255613
 0.782783  0.268746 -0.561272
 0.814718  0.144692 -0.561515
-0.493728  0.454858  0.741172
 0.390974 0.0345448  0.919753
0.281469 -0.53314 0.797833
 0.264914 -0.378455 -0.886901
-0.718044  0.658954 -0.224036
 0.611083  0.434483 -0.661666
 0.956721  0.217499 -0.193339
 0.850025 0.0380637  0.525366
-0.927648  0.344061  0.145228
  0.84948 -0.394755  0.350076
  0.997759  -0.052214 -0.0418294
-0.302321 -0.577537 -0.758322
-0.186789 -0.286822 -0.939597
-0.702168  0.115385 -0.702599
 0.802974 -0.589643 0.0869116
-0.438185 -0.390487 -0.809638
  0.15411 -0.924754  0.347966
-0.345951  0.579526  0.737881
-0.561672  0.827172 0.0176285
-0.530821  0.827115 -0.184688
  0.866906  -0.491842 -0.0810306
-0.0873658  -0.825208   0.558031
 0.971531 -0.220555 0.0865011
 0.543765 -0.528057 -0.652284
 -0.17595  0.971626 -0.158068
0.141735 0.850321 0.506819
0.366919 0.619876 0.693631
-0.658262  0.658175 -0.365371
-0.469392  0.593545  0.653739
-0.414299  -0.81191  -0.41129
-0.064048  0.497299  0.865212
 0.541968 -0.589242  0.599221
-0.196326 -0.481336 -0.854267
-0.185077  0.855888 -0.482909
-0.0179503   0.444586   0.895556
 0.768614 -0.274118 -0.578006
 0.136887 -0.753655 -0.642858
 0.216465 -0.953724 -0.208695
-0.101084 -0.953307 -0.284584
-0.466179 -0.557582  0.686862
-0.0623312   0.912676  -0.403903
 0.271126 0.0905374  0.958276
-0.726599 -0.299589 -0.618305
-0.697945  0.714733 0.0450498
 -0.90521  0.320375 -0.279203
0.942453 0.317375 0.105142
0.114753  0.22753 0.966986
-0.403298  0.812647  0.420661
 0.745775 -0.505402 -0.434037
 0.806023  -0.17736 -0.564685
-0.132628  0.680288  0.720845
 0.803354  0.334239 -0.492855
0.0696032   0.99735   0.02118
 0.609897  0.690249 -0.389335
 0.325615 -0.599631  0.731038
-0.458765   0.64461 -0.611566
-0.0765381  -0.370632  -0.925621
-0.209941 -0.967265  0.142562
 0.202772 -0.911742 -0.357226
 0.963349 -0.188288 -0.191068
-0.15726 0.125913 0.979497
 0.476233  0.540234 -0.693793
 0.556086 -0.830136  0.040515
-0.408926  0.897042 -0.167615
 0.207988 -0.106886 -0.972274
 0.638933 -0.758363  0.129038
 -0.37939  0.156435 -0.911916
0.0987009 -0.717489  0.689542
 0.340871  0.631829 -0.696131
   0.97183  -0.235652 0.00388716
-0.279898   0.45382 -0.845993
  0.685169  -0.722504 -0.0923665
 0.661911 -0.450746 -0.598917
-0.571466  -0.41142  0.710043
 -0.766718  -0.638999 -0.0618305
-0.642557  -0.75578 -0.126159
0.169387 0.969511 0.177079
 -0.592045  -0.805881 0.00625454
-0.825324 0.0391699    0.5633
-0.162289 -0.966033  0.201103
 0.502942  0.817269 -0.281286
 0.769594  0.381298 -0.512188
-0.725499 -0.270368  0.632892
-0.663833  0.740408  0.105462
 0.145919 -0.182469 -0.972323
-0.480933  0.699381  0.528743
-0.498579  0.361312 -0.787955
-0.852782 -0.136955  -0.50399
 0.663684 -0.381354    0.6435
   0.989962 3.53758e-05    0.141335
 0.251781  0.876423 -0.410474
 -0.940835 -0.0203171  -0.338256
0.465481 0.217281 0.857973
-0.0624804   0.894393   0.442897
0.766025 0.234321 0.598582
-0.45363 0.761413 0.463109
0.0846565 -0.941359  0.326612
0.394992 0.292833 0.870764
  0.936334   0.346856 -0.0544855
 0.545436 -0.705024 -0.453256
 0.655537 -0.711591 -0.252803
-0.475939  0.647209  0.595486
 0.93783 0.301989  0.17111
-0.654552  0.570746 -0.495793
 0.515723  0.688672 -0.509667
 0.25138 0.960874 0.116319
 0.686012   0.31745 -0.654685
0.0502659  0.524705 -0.849799
  0.974421 -0.0943192   0.203982
 -0.986137  -0.164903 -0.0184768
-0.868627 -0.318751 -0.379323
 0.811134  -0.28744 -0.509352
 0.741781  0.556955 -0.373581
  0.46388 -0.417138  0.781544
-0.965535 0.0966632  0.241658
-0.653961 -0.711021  0.258426
-0.907702 0.0585817 -0.415506
  -0.88717 0.00792151   0.461374
 0.168742 -0.552814 -0.816041
  -0.5516 -0.676542 -0.487882
0.728238 0.634066 0.260057
-0.619454 -0.704995 -0.345337
-0.563893  0.458162  0.687104
-0.690896 -0.184869 -0.698917
 0.919631  -0.20079 -0.337584
-0.0110599  -0.292637    0.95616
0.140052 0.429157 0.892306
-0.812603 -0.467392  0.348169
-0.713152  0.589345  0.379587
-0.349111  0.418487  0.838445
  0.194646   0.978496 -0.0682587
 -0.38482  0.722382 -0.574524
-0.989997 -0.103543 0.0958394
 0.279574 -0.803456   0.52564
 0.676797 -0.523281  0.517805
 0.578413 -0.563729 -0.589617
0.367452 0.735072  0.56978
-0.590494 -0.694952 -0.410315
 0.281543  0.945281 -0.164857
0.458809 0.550967 0.697087
-0.590725  0.394223  0.704012
-0.432369  0.354451 -0.829109
-0.398906 0.0580335  0.915153
 0.772587 -0.598491  0.211938
-0.233481  0.344576   0.90926
-0.70315  0.69652 -0.14297
 -0.34153 -0.630183    0.6973
-0.132341 -0.530537 -0.837267
-0.913366 -0.162063  0.373495
-0.441455 -0.641586 -0.627284
-0.463908  0.435823 -0.771263
  0.983645 -0.0476698  -0.173695
-0.649142  0.700679  0.296082
 0.102901 -0.806138 -0.582711
 0.0792854 -0.0375962   0.996143
-0.336313  -0.82509 -0.454004
 -0.51021  0.505067 -0.696127
0.840652 0.396275 0.369147
 0.492059 -0.855556 -0.160938
 0.363306  0.784928 -0.501894
 0.530381 -0.175713  -0.82935
 -0.990111 -0.0332133   0.136296
 0.268984 -0.626899 -0.731194
-0.0739965  -0.930414  -0.358962
0.0999116 -0.544055   0.83308
-0.673279  0.429134 -0.602113
0.0706824 -0.431259 -0.899455
-0.519088   0.61964 -0.588723
-0.278586 -0.433954  0.856781
-0.0281146  -0.960405   0.277186
0.123411 0.298075 0.946531
 0.332574 -0.388928 -0.859145
 -0.491961 -0.0638398   0.868273
-0.49789  0.85323 0.155254
-0.627069 -0.510137   0.58868
0.651089 0.578719 0.491088
0.276654 0.478173 0.833555
-0.212454 -0.369905 -0.904452
  -0.995926   0.0900541 -0.00455503
-0.279313 -0.380257 -0.881696
-0.552443  0.319517  -0.76988
 0.902047  0.426437 0.0668077
 0.396372 -0.846665  0.355031
-0.289449 -0.509243 -0.810488
 0.933572 -0.355259 0.0472788
  0.30214 -0.336644  0.891842
-0.881155  0.130972 -0.454327
-0.102774  0.287878  0.952136
 -0.313957   0.947184 -0.0653697
  -0.5696 -0.749826 -0.336627
 0.401345 -0.117357  0.908377
-0.203337 -0.243249  0.948411
-0.482801 -0.716545  0.503455
 0.192039  0.927223 -0.321524
0.433377 0.738051  0.51717
-0.469494 -0.848457 -0.244327
  0.81928  0.551581 -0.156649
-0.12401 0.942761 0.309554
0.309542 0.794479 0.522481
 -0.50454 0.0618741  0.861169
  -0.416627 -0.00936645   -0.909029
0.370409 0.782102 0.501112
-0.783756  0.611979  0.105868
 0.235459 -0.806101 -0.542918
-0.746738 -0.638063  0.187769
-0.811795  0.504386  -0.29425
-0.608247 -0.683751  0.403138
0.663185 0.276751  0.69541
 0.553347 -0.528212   0.64405
 -0.88137  0.386895 -0.271106
  0.76625  0.583147 -0.269816
   0.752748 -0.00775067    0.658263
 0.734612 -0.181074  0.653879
-0.591675  0.567771 -0.572326
-0.250659  0.853322 -0.457177
0.0883908 -0.978387  0.186936
-0.941886 -0.101239  0.320313
-0.915533 -0.254932   0.31114
 0.747551 -0.148665 -0.647353
-0.098238 -0.993159 0.0631281
 0.722847   0.61478 -0.315496
-0.842617  0.153273   0.51624
  0.89617  0.412608 -0.163198
-0.126428  0.834732  0.535947
 -0.297858  -0.952639 -0.0613213
 0.407445  0.286263 -0.867204
-0.365612  0.349236  0.862764
-0.981355 0.0917669  0.168884
 0.712144 -0.586519 -0.385805
  0.937316 -0.0263935    0.34748
 0.977369 -0.114271 -0.178024
 0.609249 -0.790194 0.0663991
0.499626 0.804839 0.320326
-0.0987564  -0.480408  -0.871468
-0.341726 -0.415905  0.842761
 0.619845 -0.625059   0.47444
 0.613289 -0.492928   0.61717
 -0.549145 -0.0581654   0.833701
 0.563961 -0.118959 -0.817188
0.309732 0.695764 0.648058
-0.590406  0.605177  0.534024
-0.00799049   -0.826342   -0.563113
-0.0254975   -0.99465   0.100104
-0.0393657    0.55796  -0.828934
 -0.10695 -0.534251  0.838533
-0.406544  0.743323 -0.531218
  0.510888   0.858402 -0.0462573
 -0.35697  0.929737 0.0903471
 0.512155 -0.815052 -0.270902
0.190851 0.358556 0.913791
-0.487701  0.691583 -0.532786
 0.562672 -0.167629  0.809507
 -0.660444 -0.0687402  -0.747722
 0.670081  0.730691 -0.130697
  0.11896 -0.985049  0.124611
  0.178862  -0.982915 -0.0434268
 0.404191 -0.482121 -0.777296
 -0.14116  0.489173 -0.860688
  0.18925 0.0802575 -0.978643
-0.113214  -0.90326  0.413889
-0.801145  0.355377  0.481533
-0.0671985   0.672122  -0.737385
-0.630368 -0.570609  0.526348
 0.659976  0.442625 -0.607054
-0.0001665  -0.998773 -0.0495225
-0.943602 -0.212576 -0.253823
-0.125547  0.787766  0.603044
-0.114761 -0.717965  0.686554
0.258762  0.84112 0.474931
-0.479996  0.132903 -0.867145
 -0.993999  -0.109321 0.00389716
-0.656378   0.73398 -0.174476
-0.652742   0.46635   0.59703
-0.0767638   0.241452  -0.967372
0.912275 0.134017 0.387032
 0.699485 -0.563341 -0.439735
  0.72353  0.273895 -0.633629
-0.122298  0.577387  0.807259
-0.0949411  0.0688084  -0.993102
   0.3635 -0.726906  0.582644
0.846047 0.490114 0.209743
-0.206553 -0.912843  0.352212
 0.886997 -0.433631 -0.158747
 0.626832 -0.544969  0.556858
 -0.68176   0.49259 -0.540886
0.00201615  -0.456908   0.889512
-0.304186  0.679375  0.667773
 0.424708  0.896491 -0.126199
-0.242009  0.786111 -0.568736
-0.412864  0.283568 -0.865524
 0.539963 -0.476455  0.693852
     0.61444    -0.788963 -0.000780508
   0.899135 -0.00252912    0.437663
-0.00265629   -0.723919   -0.689879
 0.593153  0.338872 -0.730298
 0.822552 -0.234349  0.518159
0.744002 0.133822 0.654639
 0.922351 -0.315986 -0.222311
-0.135671 -0.374881  0.917092
-0.403103 -0.763566  0.504455
 0.340092 -0.931339 -0.130176
-0.864526  -0.26838 -0.424932
-0.729448  0.629181  0.268399
 0.298035 -0.497189 -0.814848
-0.0694867  0.0119091   0.997512
-0.132258  0.920647  -0.36731
-0.133036 -0.852975 -0.504713
   0.49524  -0.867003 -0.0551631
0.0406705 -0.911544  0.409186
-0.357391 -0.702184    0.6158
-0.267814  0.843691  0.465254
 0.569584 -0.412373 -0.711001
  -0.862484    0.506032 -0.00730069
 0.403433 -0.605124 -0.686343
-0.265015  0.886129  0.380187
-0.00229844    0.926061    0.377366
0.970556   0.1441 0.193018
 0.65541 0.665534 0.357073
-0.526474  0.559066 -0.640524
-0.566755 -0.550341  0.613118
 -0.498898 -0.0271487  -0.866235
-0.852147   0.45507 -0.258373
0.101458 0.954261 0.281234
 0.243571 -0.395418  0.885617
-0.542378  0.663899 -0.514844
0.0398224  0.264756  0.963493
  0.31203 -0.727096   0.61153
-0.713337 -0.205664  0.669965
-0.221483 -0.972505 0.0719687
0.0796613 -0.971689 -0.222427
 -0.990391  -0.108107 -0.0862493
   0.98199   0.188457 -0.0133783
 0.803238 -0.417655  0.424704
 0.560419 -0.816208  0.140479
-0.273777 -0.449188 -0.850456
-0.903977  0.184298  0.385824
-0.452525  0.869946 -0.195998
 -0.399758 -0.0051196   0.916606
 0.481467 0.0848815  0.872344
-0.0742229  -0.612843  -0.786711
 0.104531 0.0947395 -0.989999
 0.949304  -0.16275 -0.268949
0.727603 0.407099 0.552145
-0.235536 -0.107133  0.965943
-0.202179 0.0691767  0.976902
 0.486488 -0.605049  0.630273
 -0.16446 -0.624093  0.763846
 0.552066   0.27946 -0.785573
-0.0867653  -0.994013 -0.0664006
-0.597633  0.611522 -0.518532
-0.441617  0.158833  0.883032
-0.153266  0.867775  0.472733
-0.884321   0.10022  0.455995
-0.138999 -0.580895 -0.802023
 0.213338 -0.532567   0.81906
-0.541606 0.0883298 -0.835979
-0.341734 -0.931735  0.122832
0.403625 0.479572 0.779165
 0.111895 -0.905526   0.40927
 0.826913  -0.22779 -0.514127
 0.732675 -0.602381   0.31674
-0.595704  0.791476 -0.136759
 0.818079 -0.482694 -0.312655
 0.974907  0.203161 0.0910103
 0.934821 -0.123742 -0.332862
-0.832296   -0.5529 0.0398065
-0.0558422  -0.922828   0.381142
-0.614352 -0.717158  0.329025
 0.881619 -0.469706   0.04609
 0.0233795    0.99708 -0.0726948
  0.362628  -0.930346 -0.0543802
 0.659355 0.0206809  0.751547
-0.388814  0.872096  0.297108
 0.209995 -0.137333  0.968009
 0.225841 -0.183053 -0.956811
0.504207 0.279587 0.817072
 0.985978 0.0675693  0.152581
-0.462658 -0.769091 -0.440961
0.0722304  0.675291 -0.734006
0.273755 0.664488 0.695352
 0.327475   0.75005 -0.574617
  0.979548 0.00768777  -0.201064
-0.742868  0.479565 -0.467081
-0.617294  0.328075  0.715063
0.768932 0.418978 0.482908
 0.509255 -0.348124 -0.787064
 -0.222754 -0.0266698    0.97451
  -0.909794 -0.00774971   -0.414989
0.419406 -0.19748 0.886059
-0.725156 -0.600832  0.336376
 0.691879  0.693619 -0.200491
 0.223319 -0.904592  0.363102
0.0371405 -0.538554 -0.841772
 0.542281 -0.246038 -0.803366
 0.954202 -0.170125   0.24608
 0.873647 -0.215832  -0.43607
-0.751457  0.657101 0.0594152
-0.151703 -0.980782 -0.122687
 0.645572  0.757882 0.0940857
 -0.41451 -0.264565 -0.870739
-0.815936  0.551018 -0.175008
-0.0241175   0.417997  -0.908128
-0.675561   0.31836   0.66503
-0.847161  0.200757 -0.491949
 0.432477  0.758576 -0.487367
0.400404 0.183246  0.89783
0.083287 -0.35208 0.932257
-0.417345  0.227128  0.879907
-0.568627  0.180552 -0.802536
-0.283388  0.388466  0.876804
-0.00598175   -0.516043    0.856542
-0.125652 -0.983794  0.127909
  0.63051 -0.571203 -0.525532
 0.149291   0.97972 -0.133647
  0.733971   0.679179 0.00146007
 -0.525619   0.849276 -0.0495421
 0.0354216 -0.0362707  -0.998714
 0.22739 0.757968 0.611374
-0.702203  0.646359 -0.298548
 0.500803 -0.835845  0.224853
0.0386593  0.967573 -0.249614
-0.315456  0.748017 -0.583916
0.229746 0.296379 0.927026
 0.593595  -0.46805 -0.654656
-0.473574  -0.12699  0.871551
-0.328383  0.142466  0.933739
-0.707971  0.703546 -0.061648
0.888957 0.446226 -0.10314
-0.866534 -0.050065    0.4966
 0.473858   0.36068 -0.803348
 0.583596  0.577366 -0.571021
0.526856  0.55369 0.644864
 -0.949822  -0.310016 -0.0415603
 0.344738  0.215924 -0.913527
-0.854213  0.466734  0.229083
-0.178871  0.975987  0.124319
 -0.38386 -0.337688 -0.859429
 0.966796  0.247422 0.0639363
 -0.218109   0.975073 -0.0407618
 0.489213 -0.707544 -0.509954
0.874166 0.433733 0.218427
0.0444144 -0.825423  0.562765
0.380374 0.675893 0.631256
-0.276439  0.812142 -0.513815
 0.903432 -0.377926  0.202442
 0.067466 -0.840094 -0.538229
 0.599139 -0.428953  0.676041
-0.555419   0.34445  0.756878
0.873493 0.467472 0.135944
0.0571588  0.710568  0.701303
-0.746607  0.246682   0.61784
    0.659 -0.679059 -0.323416
-0.689554 -0.441361  0.574209
 -0.708795 0.00156967   0.705413
0.663712 0.616368 0.423765
  0.37135  0.877957 -0.302145
-0.663411 -0.198292  0.721503
-0.687071 -0.715754  -0.12502
-0.0614594  -0.201992  -0.977457
 0.989022  0.143043 0.0370722
0.00405359 -0.0248974   0.999682
-0.673092 -0.583154  0.454838
-0.0323975     0.9838   0.176317
-0.147541   0.12698 -0.980871
-0.157368  0.410171 -0.898329
 -0.18455 -0.705328  0.684436
-0.832676 -0.515129  0.203208
-0.608958  0.540225  0.580799
-0.862053  0.470312 -0.188871
-0.429731 -0.446242  0.784983
 0.685838 -0.186525 -0.703445
-0.491526 -0.521104 -0.697749
  0.771025 0.00035194  -0.636805
-0.499374    0.8641 0.0629031
 0.475961 -0.553595   0.68337
-0.453339   0.54728 -0.703539
 -0.551333  -0.833159 -0.0433429
 0.796858 -0.115175 -0.593087
0.584605  0.53787 0.607398
 0.344566 -0.447224 -0.825388
 0.783314 -0.496207 -0.374428
0.0444704  0.120791  0.991681
  0.689808   0.722897 -0.0398096
 0.320527 -0.798853 -0.509015
 0.433557  -0.35466 -0.828398
 0.118736  -0.94479 -0.305409
-0.069141  0.878344 -0.473003
 0.382154 -0.262969  0.885892
 0.471911  0.263836 -0.841244
 0.356893  -0.13361 -0.924541
-0.173945 -0.622848  -0.76276
  0.59246 -0.694839 -0.407663
  0.66577 -0.460192  0.587344
 0.468113 -0.126462  0.874573
-0.849498 -0.211371    0.4834
-0.235925 -0.579095  0.780377
 -0.967901 0.00985183    0.25114
 -0.892598   -0.44732 -0.0563286
   -0.97076    0.240016 -0.00403889
0.753662 0.640839  0.14601
 0.206854 -0.978286 0.0129237
  0.151093 -0.0347235    0.98791
-0.761305  0.613211 -0.210683
  0.17547 -0.889964 -0.420921
 0.298654 -0.667306  0.682282
 0.599956   0.63486 -0.486833
  0.587873 -0.0156665   0.808802
-0.193299 -0.526814  0.827709
0.0540362 -0.690571 -0.721243
0.0611134  0.425622  0.902835
  0.37011 -0.052543  0.927501
-0.853972 -0.502838 -0.133735
0.920771 0.052943 0.386495
-0.335735 -0.198138 -0.920882
-0.656028 0.0946857 -0.748774
-0.714397 -0.253508 -0.652204
 -0.926657  -0.373159 -0.0453772
  0.929999  -0.365925 -0.0346525
 -0.80315 -0.590624 -0.078189
-0.757319 -0.362195   -0.5434
 0.495251 -0.082759 -0.864799
0.288133 0.790693 -0.54017
0.859419 0.145132 -0.49024
-0.849412 -0.407954 -0.334771
 0.840367 -0.301014 -0.450748
0.697432 0.665629 -0.26557
-0.158701 -0.446731   0.88048
0.0430803 -0.765538  0.641946
  0.438136  -0.896741 -0.0623868
 0.685064 -0.707938 -0.171788
-0.421793 -0.707764  0.566711
 0.311721  0.945705 0.0920477
 0.643124 -0.257498  -0.72117
 0.283244 -0.946635  0.153801
 -0.476594   0.879055 -0.0110295
0.0982176  0.799489  0.592597
-0.646165  0.251321  0.720631
 0.716799 -0.461169  0.522994
-0.0141398   -0.34245   -0.93943
0.00563877    0.92999  -0.367541
 0.297762  0.512218 -0.805587
-0.965064 0.0288961 -0.260418
-0.835019 -0.383286  -0.39476
-0.140217 -0.127564 -0.981869
-0.0458332  -0.106713  -0.993233
 -0.60719 -0.633344  0.479787
-0.602137  0.275338 -0.749414
 0.921903 -0.254045 -0.292499
-0.355072  0.323413 -0.877113
-0.533883 -0.483686  0.693554
-0.551355  0.709652 -0.438637
   0.85702 -0.0600617  -0.511771
 0.137548 -0.825114  0.547967
 0.498905 0.0851897 -0.862459
 0.206759  0.496477 -0.843067
0.900729 0.337827 0.273057
 0.535289 -0.735614  0.415136
-0.818646  -0.34111  -0.46202
0.0245275 -0.861954  0.506393
-0.358815 -0.531906 -0.767026
  0.62683 -0.132089 -0.767878
-0.794652 -0.606267 0.0311178
-0.0442369   0.173689   0.983806
-0.353867 -0.449126 -0.820405
  0.283577 -0.0965931   0.954072
 -0.443415   0.892247 -0.0853198
-0.365728 -0.738354 -0.566636
0.296827 0.742888 0.600009
-0.399416 -0.884814 -0.239939
0.509166 0.372412 0.775925
-0.937075 -0.346508 0.0426932
-0.681225 -0.483148     -0.55
0.628151 0.493445 0.601613
 -0.962044 -0.0616991   0.265827
-0.125843   0.49247  0.861183
0.543166 0.685408  0.48496
0.0648876  0.979498  0.190718
-0.176103 -0.839485  0.514055
   0.523136 -0.00888483    0.852203
0.661862 0.696463 0.277268
 0.327949  0.577371 -0.747724
-0.920184 0.0201357  0.390967
0.361302 0.864839  0.34859
-0.625987  0.758254  0.182184
-0.289991 -0.532198  0.795406
 0.852072  0.474163 -0.221681
0.200092 0.107735 0.973836
 -0.808255 -0.0266881  -0.588228
-0.342076  0.876292 -0.339258
 0.642103 -0.616189 -0.456086
  0.993064 -0.0514952   0.105695
0.252549 0.947826 0.194537
-0.844046 -0.486522  -0.22557
-0.350578 -0.912185 -0.212166
 -0.35703  0.612688 -0.705083
 0.586351 -0.785321  0.198651
0.811097 0.390868 0.435136
 0.675434 0.0727721 -0.733821
 0.861831  0.213303 -0.460162
 0.571361  0.491797 -0.657026
0.0158121 -0.561615  0.827247
-0.550452  0.785737 -0.282171
 0.215003  0.199612 -0.955996
-0.509033  0.127349  0.851274
-0.0112544  -0.972036  -0.234563
-0.634145 -0.350813  -0.68905
-0.229959  0.716799  0.658269
 0.822429  0.479765 -0.305674
    0.452201     0.891916 -0.000643354
0.709012 0.559615 0.429107
 0.885873 -0.282517  0.367985
-0.355435   0.74392  0.565906
  0.61923    0.1014 -0.778635
 0.260154 -0.913901  0.311615
 -0.88042 -0.177578  -0.43969
0.822049  0.11231 0.558232
0.0346051  0.329144 -0.943645
0.095979 0.748794 0.655817
 0.820815 -0.416976 -0.390377
 0.396466    0.3533 -0.847345
 0.428291 -0.722802 -0.542332
  0.59142  0.760465 -0.268169
 0.806126 -0.542092 -0.237269
-0.729889  0.315244  0.606533
-0.00545736     0.64958   -0.760274
-0.0520031   0.394962   0.917224
 0.105676 -0.993889 0.0318909
 0.726131 -0.647972  0.229927
0.0409458 -0.404956  0.913419
-0.503398 -0.660507 -0.557065
-0.197796   0.70543 -0.680621
0.298398 0.158774 0.941143
 0.168087  0.577602 -0.798826
-0.747644  0.361555  0.557051
-0.252013  0.734622 -0.629936
-0.231891 -0.934971 -0.268433
 0.253828 -0.684918 -0.682978
-0.841813   0.33008  0.427081
-0.777106  0.588239  0.223786
0.540103 0.841464 0.015066
 0.884412 0.0675325 -0.461796
0.521351 0.156675 0.838836
0.959816 0.221319 0.172543
0.113311 0.898009 0.425136
  0.915245 -0.0843255   0.393975
0.199188 0.237877 0.950652
 0.294506 -0.843386 -0.449407
-0.935347  0.173213  -0.30842
-0.957751 -0.238396  0.160871
0.0454878 -0.993671  0.102708
-0.911346  0.409439 0.0425228
 0.417119 -0.118525  -0.90109
-0.728459 -0.557084  0.398753
0.855403 0.322047 0.405674
 0.348159 -0.272677 -0.896902
  0.23465 -0.785752  0.572304
-0.33744 0.924623 0.176656
 0.432943  0.481587 -0.761994
-0.565682 -0.782023 -0.261617
  0.49651  0.742025 -0.450418
-0.443425   -0.6986 -0.561544
0.026529 0.993795 0.108018
-0.573176 -0.566253 -0.592306
 0.631824 -0.404194 -0.661382
 0.531411 -0.770009  0.353112
0.589198 0.281227 0.757468
 0.852647 -0.113295  0.510056
 0.604733 -0.685132   0.40607
  0.34619 -0.819786  0.456184
 -0.229671 0.00727224  -0.973241
-0.793195  0.477239 -0.378265
  0.13996 -0.576281  0.805178
-0.39501 0.497981 0.771999
   0.6257 -0.516676 -0.584419
 -0.835815 -0.0707122  -0.544439
 0.284082 -0.928764  0.238107
-0.23974 0.778242   0.5804
-0.211372 -0.176329  0.961369
 0.624496  -0.75341 -0.205861
 0.526261 -0.651714 -0.546186
-0.863044 -0.427368   0.26928
-0.362965  0.899538  0.243079
0.455109 0.435866 0.776464
-0.667614 -0.641711 -0.377489
-0.103174  0.969627  0.221763
-0.810347 -0.261381  0.524421
 -0.367749  -0.927183 -0.0713605
0.628918 0.755081 -0.18524
-0.309215  0.908844 -0.279982
-0.612906 -0.230596  0.755759
-0.591483 -0.410182 -0.694189
-0.265285 -0.257407 -0.929175
 0.845831 0.0724325  -0.52851
 0.454949 -0.655461 -0.602821
0.0247596 -0.617046  0.786537
 0.774672  0.616813 -0.139376
 0.372839 -0.908429 -0.189069
 0.858979 -0.338401 -0.384239
-0.146918  0.284646 -0.947308
-0.660315 -0.244438 -0.710095
  0.32884  0.871114 -0.364727
-0.221639  0.642462 -0.733566
 -0.90984 -0.414385 0.0218197
0.123489 0.518945 -0.84584
-0.909867 -0.399191  0.113083
-0.349099 -0.389935 -0.852103
 -0.80219  0.546627 -0.240186
0.0649176  0.640668  0.765069
   0.61015  -0.789592 -0.0652835
 0.846723 -0.515953  0.129813
0.272132 0.434276 -0.85869
-0.844529 -0.218389 -0.488956
-0.102126  -0.65838  0.745726
-0.204257  0.584895 -0.784969
-0.794717  0.300434  0.527413
 -0.427314 -0.0924791  -0.899361
 0.205237 -0.499254 -0.841798
0.103092  0.92572 0.363889
 0.414645   0.20724 -0.886071
-0.742586  0.491892  0.454541
-0.584783   0.50707 -0.633173
-0.518331   -0.6613  0.542232
 0.404086 -0.798902    0.4455
-0.423846 -0.656819  0.623653
 0.327418  0.283231 -0.901431
 0.224696 -0.683149  0.694852
 0.866075  0.308389 -0.393459
 -0.602369 -0.0488248   0.796723
-0.699047  0.302141 -0.648108
 0.970602 -0.217779 -0.102486
0.0533019 -0.878463 -0.474828
 0.157811 -0.858806  0.487388
 -0.47494   -0.4553 -0.753083
 0.725532 -0.602735 -0.332136
0.457575 0.318292  0.83025
0.433486 0.895511 0.100747
-0.282074  -0.93525 -0.213873
0.614778 -0.73737 0.279882
-0.669536 -0.713922 -0.205031
-0.590582 -0.762444  0.264372
-0.616929 -0.305236  0.725417
-0.797546 -0.224786 -0.559813
-0.636379  0.491183 -0.594778
 0.483764 -0.264551  0.834257
 0.485888 -0.749914 -0.448934
-0.330353  0.834434   0.44112
-0.332217   0.69333 -0.639473
-0.140847  0.951669 -0.272925
 0.451878 -0.239174  -0.85942
-0.664037  0.716273  0.214493
 0.708719  0.449857 -0.543457
 0.524373  0.208857 -0.825477
-0.228188 -0.336479  0.913626
 -0.765197 -0.0907436   0.637369
-0.82688 0.234607 0.511106
-0.327561 -0.934425 -0.139835
-0.485913 0.0464253 -0.872773
-0.710134 -0.698416 0.0890281
0.794849 -0.28373 0.536389
-0.194173  0.549989  0.812286
0.013494 0.862161 0.506455
 0.693443 -0.108001 -0.712371
 0.626565 0.0734197  0.775903
 0.678001 -0.732329 0.0633195
-0.372759  0.927865 0.0107966
-0.225502 -0.115009  -0.96743
 0.225961 0.0187363  0.973956
-0.0845296   0.639488    0.76414
-0.954767  0.242853 -0.171588
 0.798891 -0.382715 -0.464006
0.00483728  -0.940453    0.33989
 -0.556578 -0.0732444  -0.827561
  0.16014 -0.251303 -0.954569
0.0743024 -0.622662 -0.778955
 -0.299034   0.954231 0.00468447
-0.259894  0.900685 -0.348168
 0.778001 0.0808999  0.623033
 0.561611 -0.784092  0.264184
-0.259927 -0.623856 -0.737049
 0.48221 0.744173 0.462255
 0.964517  0.050601 -0.259127
0.703549 0.621315 0.344944
 0.358469 -0.926787    0.1121
 0.274649 -0.905054 -0.324723
 -0.74221 -0.605337  -0.28756
0.741371 -0.30098 0.599817
0.0385949   0.89984   0.43451
-0.478669  0.270413 -0.835316
-0.584632  0.255297  0.770084
  0.813758 -0.0523642   -0.57884
-0.0743668  -0.980451   0.182168
 0.357781 -0.896282  0.262053
0.166328 0.807066  0.56655
-0.158446 -0.946775  0.280198
-0.0715945  -0.980073  -0.185286
0.805457 0.269405 0.527883
  0.78289  0.518565 -0.343765
-0.420296  -0.53121 -0.735641
-0.691223  0.213298  0.690446
 0.437769 -0.311444  0.843422
   0.9271  0.175862 -0.330996
0.230003 0.172402 0.957798
 0.519051 -0.609701 -0.599041
  -0.3021  0.373237 -0.877171
-0.271683 -0.949889  0.154595
0.0468609 -0.947155 -0.317335
 0.596138  0.207587 -0.775582
 0.254297 -0.246698 -0.935133
 0.769318 -0.634136 -0.077594
  0.570535   0.818851 -0.0630353
-0.633403  0.426963   0.64537
 0.338027 -0.140952  0.930522
 0.856383 -0.470039 -0.213708
  0.34671 -0.778053  0.523857
 0.670911 -0.161026  0.723843
-0.426369  0.903405 0.0454925
 0.691856  0.515024 -0.506049
-0.169866  -0.67244 -0.720396
 0.966292  0.132345 -0.220826
0.877309 -0.44142 0.188355
 0.757247 -0.433151  0.488832
-0.684543 0.0142523 -0.728833
-0.341389  0.433958 -0.833747
-0.379962  0.552222 -0.742078
-0.745078 0.0736759 -0.662895
 0.938976  0.227328 -0.258158
-0.131955  0.733617  0.666629
-0.807035 -0.576254  0.128944
-0.560906  0.681259  0.470393
0.166302 0.923695 0.345154
 0.383418 -0.331503   0.86203
 0.280233  0.189392 -0.941063
0.0852678  0.573708   0.81461
  0.259553   0.962788 -0.0753133
 0.499289 -0.865906 0.0302896
-0.285658 -0.928138  0.238663
  0.700999 -0.0316227    0.71246
 0.79149 0.175246 0.585519
 0.472768 -0.588868 -0.655534
-0.927997  0.279429  0.246458
0.713638 0.480749 0.509511
 0.332007  -0.63252 -0.699779
-0.615878  0.632077   0.47029
0.581885 0.125062 0.803598
-0.689444  0.376454  0.618829
 0.580207  0.802398 -0.139705
-0.681923 -0.108479  0.723335
-0.814883 -0.283872 -0.505353
-0.599347 -0.494239 -0.629691
 -0.71817 -0.599755 -0.352882
 0.720614 -0.687029 0.0933134
0.0342813  0.875201 -0.482543
  0.1808 -0.77523 0.605252
-0.906764 -0.245156 -0.343041
 -0.725053 -0.0195019  -0.688417
0.984103 0.134573 0.115897
 0.746765  0.331367 -0.576662
 0.393592 -0.765751 -0.508635
 0.442707 -0.849205 -0.287856
0.0132775  0.903336 -0.428728
-0.510252   0.51217  0.690888
0.0264161  0.807199 -0.589688
 0.120261 -0.921826 -0.368474
0.947451 0.104831 0.302238
 0.593595 -0.724808   0.34971
0.163296 0.755794 0.634121
 0.805289 -0.567349  0.172121
 0.91307   0.2937 -0.28292
0.198777 0.651608 0.732048
